-5.9267 -7.5177 -0.082 1 244 95 209
-5.9393 -7.5141 -0.0784 1 244 95 209
-5.9523 -7.5112 -0.0779 1 244 95 209
-5.9649 -7.5082 -0.0794 1 244 95 209
-5.979 -7.5065 -0.0795 1 244 95 209
-5.9931 -7.5044 -0.0799 1 244 95 209
-6.0055 -7.501 -0.0799 1 244 95 209
-6.0183 -7.4977 -0.079 1 244 95 209
-6.0322 -7.4957 -0.08 1 244 95 209
-6.0482 -7.4963 -0.0798 1 244 95 209
-6.0595 -7.491 -0.0807 1 244 95 209
-6.0736 -7.4891 -0.0805 1 244 95 209
-6.0868 -7.4861 -0.0805 1 244 95 209
-6.1 -7.4832 -0.0812 1 244 95 209
-6.1133 -7.4803 -0.0809 1 244 95 209
-6.1257 -7.4763 -0.0813 1 244 95 209
-6.1387 -7.473 -0.081 1 244 95 209
-6.1525 -7.4707 -0.0811 1 244 95 209
-6.1715 -7.4745 -0.0818 1 244 95 209
-6.1833 -7.4692 -0.0821 1 244 95 209
-6.1959 -7.4658 -0.0794 1 244 95 209
-6.2094 -7.4629 -0.0822 1 244 95 209
-6.2221 -7.4591 -0.0823 1 244 95 209
-6.2355 -7.4561 -0.083 1 244 95 209
-6.2502 -7.4546 -0.08 1 244 95 209
-6.2637 -7.4517 -0.0803 1 244 95 209
-6.2764 -7.4477 -0.0804 1 244 95 209
-6.2802 -7.4333 -0.0803 1 244 95 209
-6.2939 -7.4305 -0.0834 1 244 95 209
-6.3083 -7.4286 -0.0807 1 244 95 209
-6.3227 -7.4266 -0.0805 1 244 95 209
-6.335 -7.4217 -0.0802 1 244 95 209
-6.349 -7.4192 -0.0812 1 244 95 209
-6.3626 -7.4166 -0.0816 1 244 95 209
-6.3769 -7.4145 -0.0819 1 244 95 209
-6.391 -7.412 -0.0817 1 244 95 209
-6.4049 -7.4093 -0.082 1 244 95 209
-6.418 -7.4056 -0.0812 1 244 95 209
-6.4328 -7.4038 -0.0831 1 244 95 209
-6.4471 -7.4015 -0.0822 1 244 95 209
-6.4617 -7.3995 -0.0829 1 244 95 209
-6.4741 -7.3948 -0.0826 1 244 95 209
-6.4891 -7.3927 -0.0824 1 244 95 209
-6.5033 -7.3902 -0.084 1 244 95 209
-6.5174 -7.3874 -0.0828 1 244 95 209
-6.5317 -7.3849 -0.0838 1 244 95 209
-6.5453 -7.3821 -0.0805 1 244 95 209
-6.5601 -7.3801 -0.0833 1 244 95 209
-6.5731 -7.376 -0.0821 1 244 95 209
-6.5877 -7.3738 -0.0804 1 244 95 209
-6.6005 -7.3689 -0.0847 1 244 95 209
-6.6162 -7.3682 -0.0811 1 244 95 209
-6.6313 -7.3664 -0.0843 1 244 95 209
-6.6427 -7.3605 -0.0828 1 244 95 209
-6.6582 -7.3585 -0.0813 1 244 95 209
-6.6717 -7.3553 -0.0829 1 244 95 209
-6.6863 -7.3528 -0.0817 1 244 95 209
-6.7006 -7.35 -0.0827 1 244 95 209
-6.7159 -7.3482 -0.0834 1 244 95 209
-6.7283 -7.3432 -0.0822 1 244 95 209
-6.7433 -7.341 -0.0841 1 244 95 209
-6.7587 -7.3392 -0.083 1 244 95 209
-6.7731 -7.3364 -0.0833 1 244 95 209
-6.813 -7.324 -0.0847 1 244 95 209
-6.8149 -7.3076 -0.0831 1 244 95 209
-4.8085 -7.7867 -0.0882 1 244 95 209
-5.3589 -7.6304 -0.0892 1 244 95 209
-5.3718 -7.6282 -0.0884 1 244 95 209
-5.3846 -7.626 -0.0893 1 244 95 209
-5.398 -7.6247 -0.0894 1 244 95 209
-5.4096 -7.6207 -0.0892 1 244 95 209
-5.4222 -7.6181 -0.0898 1 244 95 209
-5.4358 -7.6171 -0.0899 1 244 95 209
-5.4478 -7.6136 -0.0902 1 244 95 209
-5.4612 -7.6121 -0.0903 1 244 95 209
-5.474 -7.6097 -0.09 1 244 95 209
-5.4861 -7.6063 -0.0909 1 244 95 209
-5.499 -7.6041 -0.0907 1 244 95 209
-5.5122 -7.6021 -0.0914 1 244 95 209
-5.527 -7.6025 -0.0906 1 244 95 209
-5.5361 -7.5948 -0.0908 1 244 95 209
-5.549 -7.5926 -0.0918 1 244 95 209
-5.5617 -7.5899 -0.0915 1 244 95 209
-5.5744 -7.5872 -0.0889 1 244 95 209
-5.5867 -7.5839 -0.0893 1 244 95 209
-5.5997 -7.5815 -0.0917 1 244 95 209
-5.6116 -7.5778 -0.0929 1 244 95 209
-5.6256 -7.5767 -0.0891 1 244 95 209
-5.639 -7.5749 -0.0901 1 244 95 209
-5.6552 -7.5767 -0.0896 1 244 95 209
-5.665 -7.5701 -0.0896 1 244 95 209
-5.6782 -7.5678 -0.0909 1 244 95 209
-5.6908 -7.5647 -0.09 1 244 95 209
-5.7042 -7.5628 -0.0907 1 244 95 209
-5.7168 -7.5597 -0.091 1 244 95 209
-5.7307 -7.5583 -0.0905 1 244 95 209
-5.7431 -7.5549 -0.0917 1 244 95 209
-5.7552 -7.5512 -0.0909 1 244 95 209
-5.7684 -7.5488 -0.0918 1 244 95 209
-5.7841 -7.5496 -0.0913 1 244 95 209
-5.7946 -7.5436 -0.0916 1 244 95 209
-5.8072 -7.5404 -0.0923 1 244 95 209
-5.8201 -7.5375 -0.0914 1 244 95 209
-5.8336 -7.5355 -0.0927 1 244 95 209
-5.8462 -7.5322 -0.0922 1 244 95 209
-5.8593 -7.5295 -0.0928 1 244 95 209
-5.8719 -7.5262 -0.0929 1 244 95 209
-5.8862 -7.5249 -0.0923 1 244 95 209
-5.8994 -7.5223 -0.0903 1 244 95 209
-5.9167 -7.5249 -0.0931 1 244 95 209
-5.9268 -7.5178 -0.0937 1 244 95 209
-5.9397 -7.5148 -0.0905 1 244 95 209
-5.9527 -7.5117 -0.0899 1 244 95 209
-5.9646 -7.5078 -0.0912 1 244 95 209
-5.9791 -7.5067 -0.0913 1 244 95 209
-5.9918 -7.5028 -0.0919 1 244 95 209
-6.0053 -7.5008 -0.092 1 244 95 209
-6.0193 -7.499 -0.0911 1 244 95 209
-6.0334 -7.4972 -0.0921 1 244 95 209
-6.0482 -7.4963 -0.0919 1 244 95 209
-6.06 -7.4916 -0.0928 1 244 95 209
-6.0734 -7.4889 -0.0926 1 244 95 209
-6.0864 -7.4858 -0.0923 1 244 95 209
-6.0993 -7.4824 -0.0933 1 244 95 209
-6.1133 -7.4803 -0.0931 1 244 95 209
-6.1272 -7.4781 -0.0937 1 244 95 209
-6.1394 -7.4738 -0.0935 1 244 95 209
-6.1526 -7.4707 -0.0935 1 244 95 209
-6.1707 -7.4735 -0.0943 1 244 95 209
-6.1845 -7.4706 -0.0944 1 244 95 209
-6.1962 -7.4662 -0.092 1 244 95 209
-6.2085 -7.4618 -0.0944 1 244 95 209
-6.2224 -7.4595 -0.0945 1 244 95 209
-6.236 -7.4567 -0.0952 1 244 95 209
-6.2493 -7.4535 -0.0922 1 244 95 209
-6.264 -7.452 -0.0923 1 244 95 209
-6.2781 -7.4498 -0.0923 1 244 95 209
-6.2791 -7.432 -0.0922 1 244 95 209
-6.2941 -7.4308 -0.096 1 244 95 209
-6.3076 -7.4278 -0.093 1 244 95 209
-6.3209 -7.4245 -0.0927 1 244 95 209
-6.3351 -7.4218 -0.0928 1 244 95 209
-6.3504 -7.4208 -0.0935 1 244 95 209
-6.3635 -7.4177 -0.0939 1 244 95 209
-6.3764 -7.4138 -0.0939 1 244 95 209
-6.3919 -7.413 -0.094 1 244 95 209
-6.4045 -7.4088 -0.094 1 244 95 209
-6.4186 -7.4062 -0.0935 1 244 95 209
-6.4318 -7.4027 -0.0954 1 244 95 209
-6.4462 -7.4004 -0.0946 1 244 95 209
-6.4602 -7.3977 -0.0952 1 244 95 209
-6.4745 -7.3953 -0.0953 1 244 95 209
-6.4895 -7.3932 -0.0948 1 244 95 209
-6.5035 -7.3904 -0.0964 1 244 95 209
-6.5166 -7.3866 -0.0952 1 244 95 209
-6.5314 -7.3846 -0.0962 1 244 95 209
-6.5451 -7.3818 -0.0926 1 244 95 209
-6.5585 -7.3783 -0.0957 1 244 95 209
-6.5727 -7.3756 -0.0943 1 244 95 209
-6.5877 -7.3737 -0.0931 1 244 95 209
-6.601 -7.3694 -0.0972 1 244 95 209
-6.6165 -7.3685 -0.0939 1 244 95 209
-6.6286 -7.3635 -0.0967 1 244 95 209
-6.6432 -7.361 -0.0955 1 244 95 209
-6.6576 -7.3579 -0.0937 1 244 95 209
-6.6702 -7.3537 -0.0953 1 244 95 209
-6.6868 -7.3534 -0.0942 1 244 95 209
-6.6997 -7.349 -0.0952 1 244 95 209
-6.713 -7.3451 -0.0959 1 244 95 209
-6.7281 -7.343 -0.0947 1 244 95 209
-6.7435 -7.3413 -0.0967 1 244 95 209
-6.7575 -7.338 -0.0955 1 244 95 209
-6.8137 -7.3248 -0.097 1 244 95 209
-6.8149 -7.3076 -0.0956 1 244 95 209
-4.8103 -7.7895 -0.0997 1 244 95 209
-5.2602 -7.6523 -0.1026 1 244 95 209
-5.3455 -7.6317 -0.1029 1 244 95 209
-5.3588 -7.6301 -0.101 1 244 95 209
-5.374 -7.6315 -0.1002 1 244 95 209
-5.3861 -7.6281 -0.1011 1 244 95 209
-5.3981 -7.6248 -0.1012 1 244 95 209
-5.4089 -7.6197 -0.1012 1 244 95 209
-5.423 -7.6193 -0.1016 1 244 95 209
-5.4358 -7.617 -0.1016 1 244 95 209
-5.4467 -7.6121 -0.1019 1 244 95 209
-5.4614 -7.6123 -0.1017 1 244 95 209
-5.4739 -7.6096 -0.1018 1 244 95 209
-5.4873 -7.6079 -0.1027 1 244 95 209
-5.5004 -7.606 -0.1025 1 244 95 209
-5.5129 -7.6031 -0.1032 1 244 95 209
-5.5271 -7.6026 -0.1021 1 244 95 209
-5.5356 -7.5942 -0.1029 1 244 95 209
-5.5488 -7.5922 -0.1036 1 244 95 209
-5.5619 -7.5902 -0.1031 1 244 95 209
-5.5734 -7.5858 -0.1007 1 244 95 209
-5.5869 -7.5842 -0.1008 1 244 95 209
-5.5998 -7.5818 -0.1032 1 244 95 209
-5.6138 -7.5807 -0.1051 1 244 95 209
-5.6247 -7.5756 -0.101 1 244 95 209
-5.6403 -7.5767 -0.1017 1 244 95 209
-5.6566 -7.5786 -0.1018 1 244 95 209
-5.6658 -7.5711 -0.1015 1 244 95 209
-5.6785 -7.5683 -0.103 1 244 95 209
-5.6914 -7.5656 -0.1019 1 244 95 209
-5.7049 -7.5638 -0.1026 1 244 95 209
-5.7171 -7.56 -0.1026 1 244 95 209
-5.7327 -7.561 -0.1024 1 244 95 209
-5.7448 -7.5572 -0.1037 1 244 95 209
-5.7573 -7.5539 -0.1028 1 244 95 209
-5.7705 -7.5515 -0.1038 1 244 95 209
-5.7844 -7.55 -0.1036 1 244 95 209
-5.7973 -7.5472 -0.1036 1 244 95 209
-5.8102 -7.5443 -0.1043 1 244 95 209
-5.8232 -7.5416 -0.1035 1 244 95 209
-5.8351 -7.5374 -0.1047 1 244 95 209
-5.8495 -7.5364 -0.1042 1 244 95 209
-5.8626 -7.5338 -0.1046 1 244 95 209
-5.8764 -7.5319 -0.1049 1 244 95 209
-5.8907 -7.5308 -0.1041 1 244 95 209
-5.9032 -7.5272 -0.1021 1 244 95 209
-5.9172 -7.5255 -0.1052 1 244 95 209
-5.9283 -7.5197 -0.1061 1 244 95 209
-5.9407 -7.5159 -0.1025 1 244 95 209
-5.954 -7.5134 -0.102 1 244 95 209
-5.9676 -7.5116 -0.1036 1 244 95 209
-5.9807 -7.5087 -0.1036 1 244 95 209
-5.9932 -7.505 -0.104 1 244 95 209
-6.0096 -7.5062 -0.1041 1 244 95 209
-6.021 -7.5011 -0.1032 1 244 95 209
-6.0363 -7.5008 -0.1043 1 244 95 209
-6.0499 -7.4984 -0.104 1 244 95 209
-6.0615 -7.4935 -0.105 1 244 95 209
-6.0746 -7.4904 -0.1044 1 244 95 209
-6.0882 -7.488 -0.1045 1 244 95 209
-6.1017 -7.4853 -0.1052 1 244 95 209
-6.116 -7.4836 -0.1053 1 244 95 209
-6.1277 -7.4787 -0.1059 1 244 95 209
-6.1423 -7.4773 -0.1054 1 244 95 209
-6.1535 -7.4719 -0.1054 1 244 95 209
-6.1685 -7.4709 -0.1061 1 244 95 209
-6.1829 -7.4687 -0.1065 1 244 95 209
-6.1971 -7.4672 -0.1039 1 244 95 209
-6.2109 -7.4647 -0.1067 1 244 95 209
-6.2253 -7.463 -0.1068 1 244 95 209
-6.2383 -7.4595 -0.1074 1 244 95 209
-6.2524 -7.4572 -0.1045 1 244 95 209
-6.2646 -7.4527 -0.1045 1 244 95 209
-6.2791 -7.451 -0.1046 1 244 95 209
-6.2814 -7.4348 -0.1045 1 244 95 209
-6.2934 -7.4299 -0.1079 1 244 95 209
-6.3073 -7.4274 -0.1052 1 244 95 209
-6.3211 -7.4247 -0.105 1 244 95 209
-6.3352 -7.4219 -0.1047 1 244 95 209
-6.3486 -7.4187 -0.1054 1 244 95 209
-6.3625 -7.4165 -0.1061 1 244 95 209
-6.3766 -7.4141 -0.1065 1 244 95 209
-6.3899 -7.4106 -0.1066 1 244 95 209
-6.4045 -7.4087 -0.1067 1 244 95 209
-6.417 -7.4044 -0.1058 1 244 95 209
-6.4323 -7.4033 -0.1077 1 244 95 209
-6.4471 -7.4015 -0.1069 1 244 95 209
-6.4607 -7.3983 -0.1076 1 244 95 209
-6.4756 -7.3965 -0.1074 1 244 95 209
-6.4905 -7.3944 -0.1072 1 244 95 209
-6.5033 -7.3902 -0.1088 1 244 95 209
-6.5177 -7.3878 -0.1076 1 244 95 209
-6.5315 -7.3847 -0.1086 1 244 95 209
-6.5453 -7.3821 -0.1053 1 244 95 209
-6.5591 -7.3789 -0.1081 1 244 95 209
-6.5727 -7.3755 -0.107 1 244 95 209
-6.5871 -7.373 -0.1052 1 244 95 209
-6.6014 -7.3699 -0.1096 1 244 95 209
-6.6148 -7.3667 -0.106 1 244 95 209
-6.6295 -7.3644 -0.1092 1 244 95 209
-6.6435 -7.3613 -0.1077 1 244 95 209
-6.657 -7.3572 -0.1062 1 244 95 209
-6.6723 -7.356 -0.1079 1 244 95 209
-6.6861 -7.3526 -0.1067 1 244 95 209
-6.6984 -7.3476 -0.1077 1 244 95 209
-6.7115 -7.3434 -0.1084 1 244 95 209
-6.7253 -7.34 -0.1072 1 244 95 209
-6.7412 -7.3387 -0.1092 1 244 95 209
-6.7566 -7.337 -0.108 1 244 95 209
-6.8 -7.3285 -0.1086 1 244 95 209
-6.813 -7.324 -0.1096 1 244 95 209
-6.814 -7.3066 -0.1079 1 244 95 209
-4.81 -7.789 -0.1112 1 244 95 209
-5.3214 -7.6379 -0.1119 1 244 95 209
-5.3334 -7.6347 -0.1123 1 244 95 209
-5.347 -7.6337 -0.1147 1 244 95 209
-5.3594 -7.631 -0.1127 1 244 95 209
-5.3706 -7.6266 -0.1118 1 244 95 209
-5.3832 -7.6241 -0.1128 1 244 95 209
-5.3978 -7.6244 -0.1126 1 244 95 209
-5.4101 -7.6215 -0.1127 1 244 95 209
-5.4222 -7.6183 -0.1133 1 244 95 209
-5.4338 -7.6143 -0.1133 1 244 95 209
-5.4459 -7.611 -0.1137 1 244 95 209
-5.4592 -7.6093 -0.1135 1 244 95 209
-5.4728 -7.608 -0.1136 1 244 95 209
-5.4851 -7.605 -0.1145 1 244 95 209
-5.4972 -7.6016 -0.1143 1 244 95 209
-5.51 -7.5991 -0.1149 1 244 95 209
-5.5223 -7.5959 -0.1141 1 244 95 209
-5.534 -7.592 -0.1144 1 244 95 209
-5.5486 -7.5919 -0.1154 1 244 95 209
-5.5622 -7.5906 -0.1152 1 244 95 209
-5.5762 -7.5896 -0.1123 1 244 95 209
-5.588 -7.5857 -0.1127 1 244 95 209
-5.6003 -7.5824 -0.1154 1 244 95 209
-5.6129 -7.5795 -0.1166 1 244 95 209
-5.6259 -7.5771 -0.1129 1 244 95 209
-5.6398 -7.5759 -0.1138 1 244 95 209
-5.6521 -7.5726 -0.1133 1 244 95 209
-5.6656 -7.5708 -0.1134 1 244 95 209
-5.6771 -7.5663 -0.1146 1 244 95 209
-5.6904 -7.5643 -0.1138 1 244 95 209
-5.7038 -7.5622 -0.1145 1 244 95 209
-5.7161 -7.5587 -0.1145 1 244 95 209
-5.7294 -7.5566 -0.1143 1 244 95 209
-5.7426 -7.5543 -0.1156 1 244 95 209
-5.7548 -7.5507 -0.1147 1 244 95 209
-5.7682 -7.5485 -0.1157 1 244 95 209
-5.7812 -7.5458 -0.1152 1 244 95 209
-5.7937 -7.5424 -0.1155 1 244 95 209
-5.808 -7.5414 -0.1162 1 244 95 209
-5.821 -7.5387 -0.1154 1 244 95 209
-5.832 -7.5334 -0.1166 1 244 95 209
-5.8469 -7.5331 -0.1161 1 244 95 209
-5.8584 -7.5284 -0.1168 1 244 95 209
-5.8722 -7.5265 -0.1169 1 244 95 209
-5.8869 -7.5258 -0.1164 1 244 95 209
-5.8988 -7.5216 -0.1143 1 244 95 209
-5.9123 -7.5193 -0.1171 1 244 95 209
-5.9255 -7.5162 -0.1178 1 244 95 209
-5.9396 -7.5146 -0.1146 1 244 95 209
-5.9531 -7.5122 -0.114 1 244 95 209
-5.9654 -7.5089 -0.1153 1 244 95 209
-5.9787 -7.5062 -0.1154 1 244 95 209
-5.9925 -7.5042 -0.1158 1 244 95 209
-6.0054 -7.5009 -0.1161 1 244 95 209
-6.0224 -7.5028 -0.1154 1 244 95 209
-6.0321 -7.4956 -0.1163 1 244 95 209
-6.0456 -7.4931 -0.1161 1 244 95 209
-6.0585 -7.4898 -0.117 1 244 95 209
-6.0729 -7.4883 -0.1168 1 244 95 209
-6.0863 -7.4855 -0.1166 1 244 95 209
-6.0996 -7.4827 -0.1176 1 244 95 209
-6.1133 -7.4803 -0.1174 1 244 95 209
-6.1255 -7.476 -0.118 1 244 95 209
-6.138 -7.4722 -0.1178 1 244 95 209
-6.1533 -7.4716 -0.1179 1 244 95 209
-6.1661 -7.468 -0.1186 1 244 95 209
-6.18 -7.4652 -0.1186 1 244 95 209
-6.1945 -7.4641 -0.1163 1 244 95 209
-6.2083 -7.4616 -0.1188 1 244 95 209
-6.2217 -7.4586 -0.1189 1 244 95 209
-6.2359 -7.4566 -0.1196 1 244 95 209
-6.2498 -7.4541 -0.1166 1 244 95 209
-6.2624 -7.4502 -0.1167 1 244 95 209
-6.2759 -7.4471 -0.1168 1 244 95 209
-6.2812 -7.4344 -0.1167 1 244 95 209
-6.2942 -7.4309 -0.1204 1 244 95 209
-6.3079 -7.4281 -0.1175 1 244 95 209
-6.3225 -7.4264 -0.1173 1 244 95 209
-6.3353 -7.4221 -0.1173 1 244 95 209
-6.349 -7.4192 -0.118 1 244 95 209
-6.3629 -7.417 -0.1184 1 244 95 209
-6.3774 -7.415 -0.1188 1 244 95 209
-6.3911 -7.4121 -0.1186 1 244 95 209
-6.4042 -7.4085 -0.1187 1 244 95 209
-6.4179 -7.4055 -0.1181 1 244 95 209
-6.4325 -7.4035 -0.1201 1 244 95 209
-6.4467 -7.401 -0.1192 1 244 95 209
-6.46 -7.3975 -0.1196 1 244 95 209
-6.4752 -7.3961 -0.12 1 244 95 209
-6.4898 -7.3936 -0.1195 1 244 95 209
-6.5033 -7.3902 -0.1211 1 244 95 209
-6.5174 -7.3874 -0.12 1 244 95 209
-6.5319 -7.3851 -0.121 1 244 95 209
-6.5451 -7.3819 -0.1174 1 244 95 209
-6.5594 -7.3793 -0.1206 1 244 95 209
-6.5734 -7.3763 -0.1191 1 244 95 209
-6.586 -7.3718 -0.1176 1 244 95 209
-6.6009 -7.3693 -0.1217 1 244 95 209
-6.6147 -7.3665 -0.1187 1 244 95 209
-6.6287 -7.3635 -0.1216 1 244 95 209
-6.6439 -7.3618 -0.1205 1 244 95 209
-6.6577 -7.358 -0.1187 1 244 95 209
-6.6711 -7.3547 -0.12 1 244 95 209
-6.686 -7.3525 -0.1192 1 244 95 209
-6.6995 -7.3488 -0.1202 1 244 95 209
-6.7123 -7.3442 -0.1209 1 244 95 209
-6.7231 -7.3375 -0.1196 1 244 95 209
-6.7421 -7.3397 -0.1217 1 244 95 209
-6.7564 -7.3368 -0.1205 1 244 95 209
-6.7718 -7.335 -0.121 1 244 95 209
-6.8005 -7.329 -0.1211 1 244 95 209
-6.8132 -7.3242 -0.1222 1 244 95 209
-6.8141 -7.3068 -0.1207 1 244 95 209
-4.8095 -7.7883 -0.1227 1 244 95 209
-5.3826 -7.6232 -0.1245 1 244 95 209
-5.4081 -7.6187 -0.1247 1 244 95 209
-5.4207 -7.6161 -0.125 1 244 95 209
-5.4331 -7.6132 -0.1251 1 244 95 209
-5.4457 -7.6106 -0.1254 1 244 95 209
-5.4582 -7.6079 -0.1255 1 244 95 209
-5.4712 -7.6057 -0.1253 1 244 95 209
-5.4844 -7.604 -0.1263 1 244 95 209
-5.4963 -7.6003 -0.1257 1 244 95 209
-5.5088 -7.5975 -0.1267 1 244 95 209
-5.5206 -7.5936 -0.1258 1 244 95 209
-5.5325 -7.59 -0.1265 1 244 95 209
-5.5477 -7.5907 -0.1272 1 244 95 209
-5.5608 -7.5886 -0.1267 1 244 95 209
-5.5749 -7.5878 -0.1244 1 244 95 209
-5.5884 -7.5862 -0.1245 1 244 95 209
-5.5994 -7.5811 -0.1269 1 244 95 209
-5.6118 -7.578 -0.1288 1 244 95 209
-5.6245 -7.5752 -0.125 1 244 95 209
-5.6378 -7.5732 -0.1254 1 244 95 209
-5.6503 -7.5702 -0.1254 1 244 95 209
-5.6638 -7.5685 -0.1252 1 244 95 209
-5.6772 -7.5665 -0.1268 1 244 95 209
-5.6895 -7.563 -0.1257 1 244 95 209
-5.7033 -7.5615 -0.1264 1 244 95 209
-5.7164 -7.5592 -0.1264 1 244 95 209
-5.7289 -7.5559 -0.1262 1 244 95 209
-5.742 -7.5535 -0.1275 1 244 95 209
-5.7552 -7.5511 -0.1267 1 244 95 209
-5.7667 -7.5465 -0.1276 1 244 95 209
-5.781 -7.5456 -0.1274 1 244 95 209
-5.7927 -7.5412 -0.1275 1 244 95 209
-5.8082 -7.5417 -0.1282 1 244 95 209
-5.8195 -7.5368 -0.1273 1 244 95 209
-5.8315 -7.5327 -0.1286 1 244 95 209
-5.8459 -7.5318 -0.1281 1 244 95 209
-5.8588 -7.5288 -0.1285 1 244 95 209
-5.8731 -7.5277 -0.1289 1 244 95 209
-5.8856 -7.5241 -0.1281 1 244 95 209
-5.8984 -7.5211 -0.126 1 244 95 209
-5.9129 -7.52 -0.1291 1 244 95 209
-5.9257 -7.5164 -0.1301 1 244 95 209
-5.9389 -7.5137 -0.1266 1 244 95 209
-5.9521 -7.511 -0.1261 1 244 95 209
-5.9661 -7.5097 -0.1277 1 244 95 209
-5.9795 -7.5072 -0.1278 1 244 95 209
-5.992 -7.5035 -0.1281 1 244 95 209
-6.0067 -7.5025 -0.1282 1 244 95 209
-6.0192 -7.4989 -0.1274 1 244 95 209
-6.033 -7.4967 -0.1284 1 244 95 209
-6.0455 -7.4929 -0.1282 1 244 95 209
-6.0602 -7.4918 -0.1292 1 244 95 209
-6.0724 -7.4876 -0.1289 1 244 95 209
-6.0867 -7.4861 -0.129 1 244 95 209
-6.1004 -7.4837 -0.1294 1 244 95 209
-6.1133 -7.4803 -0.1295 1 244 95 209
-6.1258 -7.4764 -0.1302 1 244 95 209
-6.1387 -7.473 -0.1296 1 244 95 209
-6.153 -7.4712 -0.1297 1 244 95 209
-6.1669 -7.4689 -0.1304 1 244 95 209
-6.1794 -7.4645 -0.1308 1 244 95 209
-6.1943 -7.4638 -0.1282 1 244 95 209
-6.2078 -7.461 -0.131 1 244 95 209
-6.2211 -7.4579 -0.1311 1 244 95 209
-6.2358 -7.4565 -0.1318 1 244 95 209
-6.2493 -7.4535 -0.1289 1 244 95 209
-6.2634 -7.4513 -0.1293 1 244 95 209
-6.2734 -7.4442 -0.129 1 244 95 209
-6.2811 -7.4343 -0.1289 1 244 95 209
-6.295 -7.4318 -0.1324 1 244 95 209
-6.3075 -7.4277 -0.1297 1 244 95 209
-6.3211 -7.4247 -0.1295 1 244 95 209
-6.3351 -7.4218 -0.1296 1 244 95 209
-6.3502 -7.4205 -0.13 1 244 95 209
-6.362 -7.4159 -0.1307 1 244 95 209
-6.3771 -7.4147 -0.1311 1 244 95 209
-6.3913 -7.4123 -0.1309 1 244 95 209
-6.405 -7.4093 -0.131 1 244 95 209
-6.4184 -7.4061 -0.1305 1 244 95 209
-6.432 -7.4029 -0.1324 1 244 95 209
-6.4472 -7.4016 -0.1316 1 244 95 209
-6.4608 -7.3984 -0.132 1 244 95 209
-6.4754 -7.3963 -0.1321 1 244 95 209
-6.4889 -7.3926 -0.1319 1 244 95 209
-6.5044 -7.3914 -0.1335 1 244 95 209
-6.5165 -7.3864 -0.1324 1 244 95 209
-6.5317 -7.3849 -0.1334 1 244 95 209
-6.5444 -7.381 -0.1301 1 244 95 209
-6.5587 -7.3785 -0.133 1 244 95 209
-6.5733 -7.3762 -0.1318 1 244 95 209
-6.5867 -7.3725 -0.13 1 244 95 209
-6.6008 -7.3692 -0.1345 1 244 95 209
-6.6156 -7.3676 -0.1309 1 244 95 209
-6.629 -7.3638 -0.1341 1 244 95 209
-6.642 -7.3596 -0.1326 1 244 95 209
-6.6578 -7.3581 -0.1312 1 244 95 209
-6.6732 -7.3569 -0.1328 1 244 95 209
-6.6856 -7.352 -0.1317 1 244 95 209
-6.6988 -7.348 -0.1327 1 244 95 209
-6.7131 -7.3451 -0.1334 1 244 95 209
-6.7278 -7.3426 -0.1322 1 244 95 209
-6.7433 -7.341 -0.1339 1 244 95 209
-6.7558 -7.3361 -0.1331 1 244 95 209
-6.7696 -7.3325 -0.1335 1 244 95 209
-6.7862 -7.332 -0.1349 1 244 95 209
-6.8132 -7.3242 -0.1347 1 244 95 209
-6.8158 -7.3086 -0.1333 1 244 95 209
-6.814 -7.2883 -0.1344 1 244 95 209
-4.8092 -7.7878 -0.1342 1 244 95 209
-5.3338 -7.6352 -0.1357 1 244 95 209
-5.3703 -7.6262 -0.1353 1 244 95 209
-5.3823 -7.6229 -0.1362 1 244 95 209
-5.3946 -7.6198 -0.1363 1 244 95 209
-5.4074 -7.6176 -0.1361 1 244 95 209
-5.4208 -7.6163 -0.1368 1 244 95 209
-5.4339 -7.6144 -0.1369 1 244 95 209
-5.4459 -7.6109 -0.1372 1 244 95 209
-5.4596 -7.6099 -0.137 1 244 95 209
-5.4717 -7.6064 -0.1371 1 244 95 209
-5.4845 -7.6042 -0.1381 1 244 95 209
-5.4967 -7.6009 -0.1378 1 244 95 209
-5.5096 -7.5986 -0.1385 1 244 95 209
-5.5221 -7.5957 -0.1377 1 244 95 209
-5.5334 -7.5912 -0.138 1 244 95 209
-5.5462 -7.5887 -0.139 1 244 95 209
-5.5606 -7.5884 -0.1388 1 244 95 209
-5.5741 -7.5867 -0.1363 1 244 95 209
-5.5891 -7.5872 -0.1367 1 244 95 209
-5.599 -7.5807 -0.1391 1 244 95 209
-5.6123 -7.5787 -0.1403 1 244 95 209
-5.6251 -7.5761 -0.1366 1 244 95 209
-5.6377 -7.5731 -0.1375 1 244 95 209
-5.6512 -7.5714 -0.137 1 244 95 209
-5.664 -7.5687 -0.1371 1 244 95 209
-5.6767 -7.5658 -0.1384 1 244 95 209
-5.6893 -7.5627 -0.1376 1 244 95 209
-5.7034 -7.5617 -0.1383 1 244 95 209
-5.7171 -7.5602 -0.1387 1 244 95 209
-5.7285 -7.5554 -0.1381 1 244 95 209
-5.7411 -7.5523 -0.1391 1 244 95 209
-5.7554 -7.5514 -0.1386 1 244 95 209
-5.7662 -7.5458 -0.1395 1 244 95 209
-5.7814 -7.5461 -0.1391 1 244 95 209
-5.7929 -7.5415 -0.1394 1 244 95 209
-5.8066 -7.5397 -0.1401 1 244 95 209
-5.8189 -7.5359 -0.1393 1 244 95 209
-5.8331 -7.5348 -0.1406 1 244 95 209
-5.8471 -7.5333 -0.1401 1 244 95 209
-5.8586 -7.5285 -0.1408 1 244 95 209
-5.8727 -7.5271 -0.1409 1 244 95 209
-5.8865 -7.5253 -0.1401 1 244 95 209
-5.8985 -7.5211 -0.1383 1 244 95 209
-5.9129 -7.5201 -0.1412 1 244 95 209
-5.9268 -7.5177 -0.1419 1 244 95 209
-5.9405 -7.5157 -0.1384 1 244 95 209
-5.9538 -7.513 -0.1381 1 244 95 209
-5.9669 -7.5107 -0.1394 1 244 95 209
-5.9803 -7.5082 -0.1395 1 244 95 209
-5.9928 -7.5044 -0.1402 1 244 95 209
-6.0058 -7.5014 -0.1403 1 244 95 209
-6.0193 -7.499 -0.1395 1 244 95 209
-6.0342 -7.4982 -0.1405 1 244 95 209
-6.0456 -7.493 -0.1403 1 244 95 209
-6.0598 -7.4914 -0.1413 1 244 95 209
-6.0735 -7.489 -0.1411 1 244 95 209
-6.0871 -7.4865 -0.1409 1 244 95 209
-6.1005 -7.4837 -0.1419 1 244 95 209
-6.1143 -7.4816 -0.1417 1 244 95 209
-6.1267 -7.4774 -0.1423 1 244 95 209
-6.1399 -7.4744 -0.1421 1 244 95 209
-6.1531 -7.4713 -0.1422 1 244 95 209
-6.1669 -7.4689 -0.1429 1 244 95 209
-6.1808 -7.4662 -0.143 1 244 95 209
-6.1934 -7.4627 -0.1407 1 244 95 209
-6.2081 -7.4613 -0.1432 1 244 95 209
-6.2222 -7.4592 -0.1433 1 244 95 209
-6.2357 -7.4563 -0.144 1 244 95 209
-6.249 -7.4532 -0.1411 1 244 95 209
-6.2628 -7.4506 -0.1412 1 244 95 209
-6.2736 -7.4444 -0.1412 1 244 95 209
-6.282 -7.4354 -0.1412 1 244 95 209
-6.2949 -7.4317 -0.1449 1 244 95 209
-6.3077 -7.4279 -0.142 1 244 95 209
-6.3223 -7.4262 -0.1418 1 244 95 209
-6.3351 -7.4218 -0.1418 1 244 95 209
-6.3489 -7.419 -0.1426 1 244 95 209
-6.3641 -7.4184 -0.143 1 244 95 209
-6.3781 -7.4159 -0.1431 1 244 95 209
-6.3911 -7.412 -0.1432 1 244 95 209
-6.4045 -7.4088 -0.1433 1 244 95 209
-6.419 -7.4067 -0.1428 1 244 95 209
-6.4329 -7.404 -0.1447 1 244 95 209
-6.4476 -7.402 -0.1439 1 244 95 209
-6.4613 -7.3989 -0.1443 1 244 95 209
-6.4751 -7.396 -0.1447 1 244 95 209
-6.4901 -7.3939 -0.1443 1 244 95 209
-6.5033 -7.3902 -0.1459 1 244 95 209
-6.5178 -7.3879 -0.1448 1 244 95 209
-6.5319 -7.3852 -0.1458 1 244 95 209
-6.5452 -7.3819 -0.1422 1 244 95 209
-6.5592 -7.379 -0.1454 1 244 95 209
-6.5739 -7.3769 -0.1439 1 244 95 209
-6.5868 -7.3726 -0.1425 1 244 95 209
-6.6013 -7.3697 -0.1466 1 244 95 209
-6.6145 -7.3664 -0.1436 1 244 95 209
-6.6285 -7.3633 -0.1465 1 244 95 209
-6.6428 -7.3605 -0.1454 1 244 95 209
-6.6579 -7.3581 -0.1436 1 244 95 209
-6.6715 -7.3551 -0.1453 1 244 95 209
-6.6847 -7.351 -0.1441 1 244 95 209
-6.6999 -7.3492 -0.1452 1 244 95 209
-6.713 -7.345 -0.1459 1 244 95 209
-6.7269 -7.3417 -0.1447 1 244 95 209
-6.7419 -7.3394 -0.1468 1 244 95 209
-6.7575 -7.3379 -0.1456 1 244 95 209
-6.814 -7.3251 -0.1473 1 244 95 209
-6.8176 -7.3105 -0.1459 1 244 95 209
-6.8141 -7.2883 -0.1466 1 244 95 209
-4.8073 -7.7846 -0.1456 1 244 95 209
-5.382 -7.6223 -0.1479 1 244 95 209
-5.3953 -7.6208 -0.1481 1 244 95 209
-5.407 -7.6171 -0.1481 1 244 95 209
-5.4205 -7.6158 -0.1485 1 244 95 209
-5.4337 -7.614 -0.1486 1 244 95 209
-5.4469 -7.6123 -0.149 1 244 95 209
-5.4588 -7.6088 -0.1488 1 244 95 209
-5.4714 -7.6061 -0.1489 1 244 95 209
-5.4837 -7.603 -0.1498 1 244 95 209
-5.4966 -7.6008 -0.1493 1 244 95 209
-5.5091 -7.5979 -0.1503 1 244 95 209
-5.5217 -7.5952 -0.1492 1 244 95 209
-5.5345 -7.5927 -0.1502 1 244 95 209
-5.5475 -7.5904 -0.1508 1 244 95 209
-5.5606 -7.5883 -0.1504 1 244 95 209
-5.5732 -7.5855 -0.1481 1 244 95 209
-5.592 -7.5911 -0.1483 1 244 95 209
-5.599 -7.5807 -0.1506 1 244 95 209
-5.6121 -7.5784 -0.1525 1 244 95 209
-5.6247 -7.5755 -0.1484 1 244 95 209
-5.638 -7.5735 -0.1491 1 244 95 209
-5.651 -7.571 -0.1492 1 244 95 209
-5.6645 -7.5693 -0.149 1 244 95 209
-5.6769 -7.5661 -0.1503 1 244 95 209
-5.69 -7.5637 -0.1495 1 244 95 209
-5.7031 -7.5613 -0.1502 1 244 95 209
-5.716 -7.5586 -0.1503 1 244 95 209
-5.7292 -7.5563 -0.1501 1 244 95 209
-5.7418 -7.5532 -0.1513 1 244 95 209
-5.7544 -7.55 -0.1505 1 244 95 209
-5.7661 -7.5457 -0.1515 1 244 95 209
-5.7791 -7.543 -0.1513 1 244 95 209
-5.7921 -7.5404 -0.1514 1 244 95 209
-5.8071 -7.5403 -0.1521 1 244 95 209
-5.8201 -7.5375 -0.1513 1 244 95 209
-5.833 -7.5346 -0.1526 1 244 95 209
-5.848 -7.5344 -0.1521 1 244 95 209
-5.8597 -7.53 -0.1525 1 244 95 209
-5.8723 -7.5267 -0.1529 1 244 95 209
-5.8863 -7.5251 -0.1521 1 244 95 209
-5.8991 -7.5219 -0.1501 1 244 95 209
-5.9124 -7.5194 -0.1532 1 244 95 209
-5.9272 -7.5183 -0.1542 1 244 95 209
-5.9391 -7.5139 -0.1507 1 244 95 209
-5.9535 -7.5127 -0.1502 1 244 95 209
-5.967 -7.5108 -0.1518 1 244 95 209
-5.9812 -7.5093 -0.1519 1 244 95 209
-5.9934 -7.5052 -0.1523 1 244 95 209
-6.007 -7.5029 -0.1524 1 244 95 209
-6.0196 -7.4993 -0.1516 1 244 95 209
-6.0325 -7.4961 -0.1526 1 244 95 209
-6.0471 -7.4949 -0.1524 1 244 95 209
-6.0597 -7.4912 -0.1534 1 244 95 209
-6.074 -7.4897 -0.1529 1 244 95 209
-6.087 -7.4864 -0.153 1 244 95 209
-6.1006 -7.4839 -0.1537 1 244 95 209
-6.1147 -7.482 -0.1538 1 244 95 209
-6.1273 -7.4782 -0.1542 1 244 95 209
-6.1392 -7.4736 -0.154 1 244 95 209
-6.1539 -7.4723 -0.1541 1 244 95 209
-6.1665 -7.4685 -0.1548 1 244 95 209
-6.1806 -7.4664 -0.1552 1 244 95 209
-6.1934 -7.4627 -0.1526 1 244 95 209
-6.207 -7.46 -0.1554 1 244 95 209
-6.221 -7.4578 -0.1555 1 244 95 209
-6.2325 -7.4525 -0.1562 1 244 95 209
-6.2485 -7.4525 -0.1533 1 244 95 209
-6.2628 -7.4506 -0.1534 1 244 95 209
-6.2723 -7.4428 -0.1534 1 244 95 209
-6.283 -7.4366 -0.1534 1 244 95 209
-6.2955 -7.4325 -0.1569 1 244 95 209
-6.3083 -7.4286 -0.1542 1 244 95 209
-6.3205 -7.4241 -0.1537 1 244 95 209
-6.3343 -7.4208 -0.1538 1 244 95 209
-6.3483 -7.4183 -0.1545 1 244 95 209
-6.3629 -7.417 -0.1553 1 244 95 209
-6.3774 -7.415 -0.1557 1 244 95 209
-6.3906 -7.4115 -0.1555 1 244 95 209
-6.404 -7.4082 -0.1556 1 244 95 209
-6.4184 -7.406 -0.1551 1 244 95 209
-6.4329 -7.404 -0.1571 1 244 95 209
-6.4464 -7.4006 -0.1562 1 244 95 209
-6.4599 -7.3974 -0.157 1 244 95 209
-6.4755 -7.3964 -0.1568 1 244 95 209
-6.4896 -7.3933 -0.1566 1 244 95 209
-6.5048 -7.3919 -0.1583 1 244 95 209
-6.518 -7.3881 -0.1572 1 244 95 209
-6.5317 -7.3849 -0.1582 1 244 95 209
-6.5465 -7.3833 -0.1549 1 244 95 209
-6.5598 -7.3797 -0.1578 1 244 95 209
-6.573 -7.3758 -0.1567 1 244 95 209
-6.5874 -7.3733 -0.1549 1 244 95 209
-6.6022 -7.3708 -0.1594 1 244 95 209
-6.6155 -7.3674 -0.1558 1 244 95 209
-6.6286 -7.3634 -0.159 1 244 95 209
-6.644 -7.3619 -0.1576 1 244 95 209
-6.6568 -7.357 -0.1561 1 244 95 209
-6.671 -7.3545 -0.1578 1 244 95 209
-6.6856 -7.3521 -0.1566 1 244 95 209
-6.698 -7.3471 -0.1576 1 244 95 209
-6.7112 -7.3431 -0.1584 1 244 95 209
-6.7285 -7.3434 -0.1573 1 244 95 209
-6.7427 -7.3404 -0.1593 1 244 95 209
-6.7583 -7.3389 -0.1582 1 244 95 209
-6.7991 -7.3275 -0.1588 1 244 95 209
-6.813 -7.3239 -0.1599 1 244 95 209
-6.8143 -7.3069 -0.1581 1 244 95 209
-6.8176 -7.2921 -0.1595 1 244 95 209
-4.8065 -7.7834 -0.1571 1 244 95 209
-5.3701 -7.6259 -0.1587 1 244 95 209
-5.3828 -7.6234 -0.1597 1 244 95 209
-5.3952 -7.6207 -0.1595 1 244 95 209
-5.4074 -7.6176 -0.1596 1 244 95 209
-5.4204 -7.6156 -0.1603 1 244 95 209
-5.4336 -7.6139 -0.1604 1 244 95 209
-5.4458 -7.6107 -0.1607 1 244 95 209
-5.4588 -7.6087 -0.1605 1 244 95 209
-5.4716 -7.6063 -0.1606 1 244 95 209
-5.4846 -7.6043 -0.1616 1 244 95 209
-5.4976 -7.602 -0.1614 1 244 95 209
-5.5094 -7.5983 -0.1621 1 244 95 209
-5.5219 -7.5954 -0.161 1 244 95 209
-5.5359 -7.5946 -0.1617 1 244 95 209
-5.5487 -7.5921 -0.1627 1 244 95 209
-5.5607 -7.5885 -0.1625 1 244 95 209
-5.5735 -7.5859 -0.1596 1 244 95 209
-5.5924 -7.5917 -0.1602 1 244 95 209
-5.6007 -7.5829 -0.1628 1 244 95 209
-5.6119 -7.5781 -0.164 1 244 95 209
-5.6246 -7.5754 -0.1603 1 244 95 209
-5.6379 -7.5733 -0.1613 1 244 95 209
-5.6508 -7.5709 -0.1608 1 244 95 209
-5.6634 -7.5679 -0.1609 1 244 95 209
-5.6761 -7.5649 -0.1621 1 244 95 209
-5.6895 -7.563 -0.1614 1 244 95 209
-5.703 -7.5611 -0.1621 1 244 95 209
-5.7165 -7.5593 -0.1622 1 244 95 209
-5.7293 -7.5564 -0.162 1 244 95 209
-5.7415 -7.5529 -0.163 1 244 95 209
-5.7544 -7.55 -0.1625 1 244 95 209
-5.7682 -7.5485 -0.1635 1 244 95 209
-5.7808 -7.5454 -0.163 1 244 95 209
-5.7939 -7.5427 -0.1634 1 244 95 209
-5.8074 -7.5406 -0.1641 1 244 95 209
-5.82 -7.5374 -0.1633 1 244 95 209
-5.8347 -7.5368 -0.1646 1 244 95 209
-5.8503 -7.5374 -0.1642 1 244 95 209
-5.8591 -7.5292 -0.1645 1 244 95 209
-5.8728 -7.5272 -0.1649 1 244 95 209
-5.8856 -7.5242 -0.1644 1 244 95 209
-5.8996 -7.5225 -0.1624 1 244 95 209
-5.9123 -7.5192 -0.1652 1 244 95 209
-5.9265 -7.5174 -0.1659 1 244 95 209
-5.9386 -7.5132 -0.1624 1 244 95 209
-5.9518 -7.5105 -0.1622 1 244 95 209
-5.9659 -7.5094 -0.1635 1 244 95 209
-5.9801 -7.5079 -0.1637 1 244 95 209
-5.9928 -7.5045 -0.164 1 244 95 209
-6.0068 -7.5027 -0.1645 1 244 95 209
-6.0198 -7.4995 -0.1637 1 244 95 209
-6.0331 -7.4968 -0.1647 1 244 95 209
-6.0469 -7.4946 -0.1645 1 244 95 209
-6.061 -7.4928 -0.1655 1 244 95 209
-6.0737 -7.4892 -0.1653 1 244 95 209
-6.0872 -7.4866 -0.1651 1 244 95 209
-6.1006 -7.4839 -0.1661 1 244 95 209
-6.1128 -7.4796 -0.1659 1 244 95 209
-6.1252 -7.4756 -0.1666 1 244 95 209
-6.1401 -7.4747 -0.1665 1 244 95 209
-6.1538 -7.4721 -0.1666 1 244 95 209
-6.1656 -7.4674 -0.1669 1 244 95 209
-6.1802 -7.4659 -0.1674 1 244 95 209
-6.1933 -7.4627 -0.1647 1 244 95 209
-6.2072 -7.4603 -0.1676 1 244 95 209
-6.2215 -7.4584 -0.1674 1 244 95 209
-6.2353 -7.4559 -0.1685 1 244 95 209
-6.2479 -7.4518 -0.1655 1 244 95 209
-6.2619 -7.4495 -0.1656 1 244 95 209
-6.269 -7.4389 -0.1656 1 244 95 209
-6.2833 -7.4369 -0.1657 1 244 95 209
-6.2952 -7.4321 -0.1691 1 244 95 209
-6.3085 -7.4288 -0.1665 1 244 95 209
-6.3222 -7.426 -0.1663 1 244 95 209
-6.3355 -7.4223 -0.1664 1 244 95 209
-6.3471 -7.417 -0.1671 1 244 95 209
-6.362 -7.4159 -0.1675 1 244 95 209
-6.3774 -7.415 -0.1677 1 244 95 209
-6.3908 -7.4117 -0.1678 1 244 95 209
-6.4051 -7.4094 -0.1679 1 244 95 209
-6.4183 -7.4059 -0.1674 1 244 95 209
-6.4328 -7.4038 -0.1694 1 244 95 209
-6.4464 -7.4007 -0.1686 1 244 95 209
-6.4604 -7.3979 -0.169 1 244 95 209
-6.4755 -7.3964 -0.1695 1 244 95 209
-6.4889 -7.3925 -0.169 1 244 95 209
-6.5047 -7.3918 -0.1704 1 244 95 209
-6.518 -7.3881 -0.1695 1 244 95 209
-6.5315 -7.3847 -0.1706 1 244 95 209
-6.5463 -7.3832 -0.167 1 244 95 209
-6.5591 -7.3789 -0.1702 1 244 95 209
-6.5727 -7.3755 -0.1688 1 244 95 209
-6.5872 -7.3732 -0.1673 1 244 95 209
-6.6009 -7.3693 -0.1715 1 244 95 209
-6.6142 -7.366 -0.1685 1 244 95 209
-6.6275 -7.3622 -0.1714 1 244 95 209
-6.6433 -7.3611 -0.17 1 244 95 209
-6.6573 -7.3575 -0.1686 1 244 95 209
-6.6708 -7.3544 -0.1699 1 244 95 209
-6.685 -7.3514 -0.1691 1 244 95 209
-6.6994 -7.3486 -0.1702 1 244 95 209
-6.7136 -7.3457 -0.1709 1 244 95 209
-6.7279 -7.3428 -0.1698 1 244 95 209
-6.7421 -7.3397 -0.1718 1 244 95 209
-6.7565 -7.3369 -0.1707 1 244 95 209
-6.7988 -7.3272 -0.1714 1 244 95 209
-6.8134 -7.3244 -0.1725 1 244 95 209
-6.8102 -7.3025 -0.1709 1 244 95 209
-6.8168 -7.2912 -0.1718 1 244 95 209
-4.8055 -7.7818 -0.1686 1 244 95 209
-5.345 -7.6308 -0.1729 1 244 95 209
-5.3697 -7.6253 -0.1704 1 244 95 209
-5.3835 -7.6244 -0.1715 1 244 95 209
-5.3964 -7.6224 -0.1716 1 244 95 209
-5.4071 -7.6171 -0.1716 1 244 95 209
-5.4197 -7.6147 -0.172 1 244 95 209
-5.4343 -7.6148 -0.1721 1 244 95 209
-5.445 -7.6097 -0.1725 1 244 95 209
-5.4581 -7.6077 -0.1723 1 244 95 209
-5.4702 -7.6044 -0.1724 1 244 95 209
-5.4846 -7.6042 -0.1734 1 244 95 209
-5.4971 -7.6015 -0.1729 1 244 95 209
-5.5101 -7.5993 -0.1736 1 244 95 209
-5.5238 -7.598 -0.1732 1 244 95 209
-5.5358 -7.5945 -0.1738 1 244 95 209
-5.5486 -7.592 -0.1745 1 244 95 209
-5.5625 -7.5909 -0.1741 1 244 95 209
-5.5752 -7.5882 -0.1715 1 244 95 209
-5.5908 -7.5895 -0.172 1 244 95 209
-5.6012 -7.5836 -0.1744 1 244 95 209
-5.614 -7.5809 -0.1763 1 244 95 209
-5.6253 -7.5763 -0.1722 1 244 95 209
-5.6379 -7.5734 -0.1729 1 244 95 209
-5.6501 -7.5698 -0.1729 1 244 95 209
-5.6642 -7.569 -0.1728 1 244 95 209
-5.6791 -7.5689 -0.1741 1 244 95 209
-5.6918 -7.566 -0.1733 1 244 95 209
-5.7034 -7.5617 -0.1737 1 244 95 209
-5.7164 -7.5591 -0.1741 1 244 95 209
-5.7291 -7.5562 -0.1739 1 244 95 209
-5.7429 -7.5547 -0.1752 1 244 95 209
-5.754 -7.5495 -0.1744 1 244 95 209
-5.7672 -7.5472 -0.1754 1 244 95 209
-5.7813 -7.5459 -0.1749 1 244 95 209
-5.7955 -7.5448 -0.1754 1 244 95 209
-5.8087 -7.5424 -0.1761 1 244 95 209
-5.821 -7.5387 -0.1753 1 244 95 209
-5.8374 -7.5404 -0.1767 1 244 95 209
-5.8507 -7.5379 -0.1762 1 244 95 209
-5.8623 -7.5333 -0.1766 1 244 95 209
-5.8746 -7.5296 -0.1769 1 244 95 209
-5.8879 -7.5271 -0.1762 1 244 95 209
-5.9 -7.5231 -0.1741 1 244 95 209
-5.9152 -7.5229 -0.1773 1 244 95 209
-5.9265 -7.5174 -0.1783 1 244 95 209
-5.9389 -7.5137 -0.1747 1 244 95 209
-5.9523 -7.5112 -0.1743 1 244 95 209
-5.9666 -7.5102 -0.1759 1 244 95 209
-5.9809 -7.5089 -0.1757 1 244 95 209
-5.9921 -7.5036 -0.1764 1 244 95 209
-6.0064 -7.5022 -0.1765 1 244 95 209
-6.0195 -7.4992 -0.1757 1 244 95 209
-6.0332 -7.497 -0.1768 1 244 95 209
-6.0468 -7.4946 -0.1766 1 244 95 209
-6.0597 -7.4912 -0.1776 1 244 95 209
-6.074 -7.4896 -0.1774 1 244 95 209
-6.0882 -7.4878 -0.1776 1 244 95 209
-6.101 -7.4844 -0.178 1 244 95 209
-6.1133 -7.4802 -0.1781 1 244 95 209
-6.1266 -7.4774 -0.1788 1 244 95 209
-6.1404 -7.4751 -0.1783 1 244 95 209
-6.1548 -7.4733 -0.1788 1 244 95 209
-6.1665 -7.4684 -0.1791 1 244 95 209
-6.1828 -7.4691 -0.1796 1 244 95 209
-6.1954 -7.4651 -0.177 1 244 95 209
-6.208 -7.4612 -0.1798 1 244 95 209
-6.2226 -7.4596 -0.18 1 244 95 209
-6.2366 -7.4573 -0.1807 1 244 95 209
-6.2503 -7.4547 -0.1778 1 244 95 209
-6.2571 -7.4438 -0.1777 1 244 95 209
-6.2692 -7.4392 -0.1778 1 244 95 209
-6.2812 -7.4345 -0.1779 1 244 95 209
-6.2962 -7.4332 -0.1814 1 244 95 209
-6.3076 -7.4278 -0.1787 1 244 95 209
-6.3216 -7.4253 -0.1782 1 244 95 209
-6.3362 -7.4231 -0.1787 1 244 95 209
-6.348 -7.418 -0.1791 1 244 95 209
-6.3624 -7.4164 -0.1798 1 244 95 209
-6.3765 -7.414 -0.1803 1 244 95 209
-6.3905 -7.4114 -0.1801 1 244 95 209
-6.4055 -7.4099 -0.1802 1 244 95 209
-6.4183 -7.4058 -0.1797 1 244 95 209
-6.4331 -7.4042 -0.1817 1 244 95 209
-6.4475 -7.4019 -0.1809 1 244 95 209
-6.4612 -7.3988 -0.1814 1 244 95 209
-6.4752 -7.3961 -0.1815 1 244 95 209
-6.4898 -7.3935 -0.1813 1 244 95 209
-6.5044 -7.3914 -0.183 1 244 95 209
-6.5184 -7.3886 -0.1819 1 244 95 209
-6.5316 -7.3848 -0.183 1 244 95 209
-6.5454 -7.3822 -0.1797 1 244 95 209
-6.5593 -7.3791 -0.1826 1 244 95 209
-6.5738 -7.3768 -0.1815 1 244 95 209
-6.5874 -7.3733 -0.1801 1 244 95 209
-6.601 -7.3694 -0.1842 1 244 95 209
-6.6143 -7.3661 -0.1806 1 244 95 209
-6.6292 -7.364 -0.1839 1 244 95 209
-6.6433 -7.3611 -0.1825 1 244 95 209
-6.6568 -7.357 -0.181 1 244 95 209
-6.6702 -7.3536 -0.1827 1 244 95 209
-6.6849 -7.3513 -0.1816 1 244 95 209
-6.6994 -7.3486 -0.1827 1 244 95 209
-6.7143 -7.3464 -0.1835 1 244 95 209
-6.7272 -7.342 -0.1823 1 244 95 209
-6.7424 -7.34 -0.184 1 244 95 209
-6.7533 -7.3333 -0.1831 1 244 95 209
-6.7715 -7.3347 -0.1837 1 244 95 209
-6.7978 -7.3261 -0.1839 1 244 95 209
-6.8127 -7.3236 -0.185 1 244 95 209
-6.8089 -7.3012 -0.1831 1 244 95 209
-6.8162 -7.2906 -0.1843 1 244 95 209
-4.8091 -7.7875 -0.1802 1 244 95 209
-5.2963 -7.6428 -0.1819 1 244 95 209
-5.3342 -7.6359 -0.1825 1 244 95 209
-5.3586 -7.6298 -0.183 1 244 95 209
-5.3703 -7.6261 -0.1822 1 244 95 209
-5.3832 -7.6241 -0.1832 1 244 95 209
-5.3969 -7.6232 -0.1833 1 244 95 209
-5.4083 -7.6188 -0.1831 1 244 95 209
-5.4206 -7.6159 -0.1838 1 244 95 209
-5.4337 -7.6141 -0.1839 1 244 95 209
-5.445 -7.6097 -0.1842 1 244 95 209
-5.4594 -7.6095 -0.1841 1 244 95 209
-5.4732 -7.6086 -0.1843 1 244 95 209
-5.4851 -7.6049 -0.1852 1 244 95 209
-5.4983 -7.6031 -0.185 1 244 95 209
-5.5108 -7.6002 -0.1857 1 244 95 209
-5.5212 -7.5945 -0.1846 1 244 95 209
-5.5364 -7.5953 -0.1854 1 244 95 209
-5.5497 -7.5934 -0.1864 1 244 95 209
-5.5627 -7.5911 -0.1862 1 244 95 209
-5.5769 -7.5906 -0.1834 1 244 95 209
-5.5896 -7.5878 -0.1841 1 244 95 209
-5.601 -7.5834 -0.1865 1 244 95 209
-5.6145 -7.5817 -0.1878 1 244 95 209
-5.6306 -7.5834 -0.1842 1 244 95 209
-5.6442 -7.5819 -0.1852 1 244 95 209
-5.6543 -7.5755 -0.1846 1 244 95 209
-5.6663 -7.5717 -0.1847 1 244 95 209
-5.6793 -7.5692 -0.186 1 244 95 209
-5.6922 -7.5666 -0.1852 1 244 95 209
-5.7049 -7.5637 -0.186 1 244 95 209
-5.717 -7.5599 -0.1863 1 244 95 209
-5.7305 -7.5581 -0.1859 1 244 95 209
-5.7436 -7.5556 -0.1869 1 244 95 209
-5.7568 -7.5532 -0.1864 1 244 95 209
-5.7704 -7.5513 -0.1874 1 244 95 209
-5.7847 -7.5503 -0.187 1 244 95 209
-5.7954 -7.5447 -0.1873 1 244 95 209
-5.8076 -7.5409 -0.188 1 244 95 209
-5.8206 -7.5381 -0.1872 1 244 95 209
-5.8339 -7.5358 -0.1885 1 244 95 209
-5.8465 -7.5325 -0.1881 1 244 95 209
-5.8622 -7.5331 -0.1886 1 244 95 209
-5.8783 -7.5343 -0.1891 1 244 95 209
-5.8917 -7.5319 -0.1883 1 244 95 209
-5.9056 -7.5302 -0.1866 1 244 95 209
-5.9157 -7.5236 -0.1894 1 244 95 209
-5.9251 -7.5156 -0.1899 1 244 95 209
-5.9397 -7.5146 -0.1865 1 244 95 209
-5.9524 -7.5113 -0.1863 1 244 95 209
-5.9652 -7.5085 -0.1876 1 244 95 209
-5.9786 -7.506 -0.1877 1 244 95 209
-5.9923 -7.5038 -0.1882 1 244 95 209
-6.0059 -7.5015 -0.1886 1 244 95 209
-6.0202 -7.5001 -0.1879 1 244 95 209
-6.033 -7.4966 -0.1889 1 244 95 209
-6.0479 -7.4959 -0.1884 1 244 95 209
-6.0607 -7.4924 -0.1898 1 244 95 209
-6.0721 -7.4872 -0.1895 1 244 95 209
-6.0868 -7.4862 -0.1894 1 244 95 209
-6.0984 -7.4812 -0.1904 1 244 95 209
-6.1125 -7.4793 -0.1902 1 244 95 209
-6.1263 -7.477 -0.1909 1 244 95 209
-6.1392 -7.4736 -0.1907 1 244 95 209
-6.1536 -7.4719 -0.1909 1 244 95 209
-6.1688 -7.4712 -0.1914 1 244 95 209
-6.181 -7.4668 -0.1918 1 244 95 209
-6.1947 -7.4642 -0.1892 1 244 95 209
-6.208 -7.4613 -0.192 1 244 95 209
-6.2206 -7.4573 -0.1918 1 244 95 209
-6.2348 -7.4552 -0.1929 1 244 95 209
-6.2488 -7.4529 -0.1897 1 244 95 209
-6.2561 -7.4426 -0.1899 1 244 95 209
-6.2675 -7.4371 -0.19 1 244 95 209
-6.2824 -7.4358 -0.1905 1 244 95 209
-6.296 -7.433 -0.194 1 244 95 209
-6.3083 -7.4285 -0.191 1 244 95 209
-6.3217 -7.4255 -0.1908 1 244 95 209
-6.3357 -7.4225 -0.1909 1 244 95 209
-6.3492 -7.4194 -0.1917 1 244 95 209
-6.3615 -7.4153 -0.1921 1 244 95 209
-6.3757 -7.413 -0.1922 1 244 95 209
-6.3899 -7.4107 -0.1924 1 244 95 209
-6.4053 -7.4096 -0.1926 1 244 95 209
-6.419 -7.4067 -0.1921 1 244 95 209
-6.432 -7.4028 -0.194 1 244 95 209
-6.4463 -7.4005 -0.1933 1 244 95 209
-6.4616 -7.3993 -0.1937 1 244 95 209
-6.4756 -7.3966 -0.1942 1 244 95 209
-6.4893 -7.393 -0.1937 1 244 95 209
-6.5037 -7.3906 -0.1951 1 244 95 209
-6.5173 -7.3873 -0.1943 1 244 95 209
-6.5317 -7.3849 -0.1954 1 244 95 209
-6.5452 -7.382 -0.1918 1 244 95 209
-6.5584 -7.3782 -0.195 1 244 95 209
-6.573 -7.3758 -0.1936 1 244 95 209
-6.5875 -7.3735 -0.1922 1 244 95 209
-6.6006 -7.3689 -0.1964 1 244 95 209
-6.6148 -7.3667 -0.1934 1 244 95 209
-6.6293 -7.3642 -0.1964 1 244 95 209
-6.6436 -7.3614 -0.1949 1 244 95 209
-6.6571 -7.3573 -0.1935 1 244 95 209
-6.6714 -7.355 -0.1952 1 244 95 209
-6.685 -7.3514 -0.1941 1 244 95 209
-6.6988 -7.3479 -0.1952 1 244 95 209
-6.7135 -7.3455 -0.1959 1 244 95 209
-6.7271 -7.3419 -0.1948 1 244 95 209
-6.7422 -7.3398 -0.1969 1 244 95 209
-6.7545 -7.3347 -0.1957 1 244 95 209
-6.7701 -7.3331 -0.1962 1 244 95 209
-6.8135 -7.3245 -0.1976 1 244 95 209
-6.8129 -7.3055 -0.1961 1 244 95 209
-6.8154 -7.2897 -0.1968 1 244 95 209
-4.8079 -7.7857 -0.1917 1 244 95 209
-5.3949 -7.6203 -0.195 1 244 95 209
-5.4074 -7.6177 -0.1948 1 244 95 209
-5.4201 -7.6153 -0.1955 1 244 95 209
-5.4321 -7.6118 -0.1956 1 244 95 209
-5.4441 -7.6083 -0.196 1 244 95 209
-5.4575 -7.6069 -0.1958 1 244 95 209
-5.4697 -7.6036 -0.1959 1 244 95 209
-5.4828 -7.6017 -0.1969 1 244 95 209
-5.4961 -7.6 -0.1965 1 244 95 209
-5.5088 -7.5974 -0.1972 1 244 95 209
-5.5204 -7.5934 -0.1964 1 244 95 209
-5.5352 -7.5937 -0.1974 1 244 95 209
-5.5475 -7.5905 -0.1981 1 244 95 209
-5.5607 -7.5885 -0.1977 1 244 95 209
-5.5747 -7.5876 -0.1952 1 244 95 209
-5.5868 -7.5841 -0.1955 1 244 95 209
-5.6004 -7.5825 -0.1981 1 244 95 209
-5.6126 -7.5791 -0.1999 1 244 95 209
-5.6259 -7.5771 -0.1962 1 244 95 209
-5.6457 -7.5838 -0.1969 1 244 95 209
-5.6557 -7.5774 -0.1969 1 244 95 209
-5.6637 -7.5683 -0.1965 1 244 95 209
-5.6769 -7.5661 -0.1978 1 244 95 209
-5.6888 -7.5621 -0.197 1 244 95 209
-5.7022 -7.5601 -0.1975 1 244 95 209
-5.7153 -7.5577 -0.1979 1 244 95 209
-5.7277 -7.5544 -0.1977 1 244 95 209
-5.7413 -7.5526 -0.199 1 244 95 209
-5.7554 -7.5514 -0.1983 1 244 95 209
-5.7689 -7.5494 -0.1993 1 244 95 209
-5.7842 -7.5497 -0.1989 1 244 95 209
-5.7934 -7.5421 -0.1992 1 244 95 209
-5.8066 -7.5396 -0.1999 1 244 95 209
-5.8186 -7.5357 -0.1991 1 244 95 209
-5.8322 -7.5336 -0.2005 1 244 95 209
-5.8449 -7.5305 -0.2 1 244 95 209
-5.8586 -7.5285 -0.2004 1 244 95 209
-5.8712 -7.5252 -0.2008 1 244 95 209
-5.8859 -7.5246 -0.2001 1 244 95 209
-5.8994 -7.5223 -0.1982 1 244 95 209
-5.9149 -7.5225 -0.2014 1 244 95 209
-5.9261 -7.5169 -0.2023 1 244 95 209
-5.9372 -7.5115 -0.1988 1 244 95 209
-5.9522 -7.5111 -0.1983 1 244 95 209
-5.9644 -7.5075 -0.2 1 244 95 209
-5.9798 -7.5076 -0.1999 1 244 95 209
-5.993 -7.5047 -0.2006 1 244 95 209
-6.0053 -7.5007 -0.2007 1 244 95 209
-6.0189 -7.4984 -0.1999 1 244 95 209
-6.035 -7.4992 -0.201 1 244 95 209
-6.0463 -7.494 -0.2008 1 244 95 209
-6.0593 -7.4907 -0.2018 1 244 95 209
-6.0735 -7.489 -0.2014 1 244 95 209
-6.0861 -7.4853 -0.2015 1 244 95 209
-6.0985 -7.4813 -0.2022 1 244 95 209
-6.1124 -7.4792 -0.2023 1 244 95 209
-6.1261 -7.4767 -0.2028 1 244 95 209
-6.1397 -7.4741 -0.2026 1 244 95 209
-6.1528 -7.4709 -0.2027 1 244 95 209
-6.1704 -7.4732 -0.2036 1 244 95 209
-6.1799 -7.4655 -0.2039 1 244 95 209
-6.1936 -7.463 -0.2013 1 244 95 209
-6.2076 -7.4607 -0.2042 1 244 95 209
-6.2205 -7.4571 -0.2043 1 244 95 209
-6.2343 -7.4546 -0.2051 1 244 95 209
-6.2491 -7.4533 -0.2022 1 244 95 209
-6.2608 -7.4482 -0.2023 1 244 95 209
-6.2696 -7.4396 -0.2023 1 244 95 209
-6.282 -7.4353 -0.2024 1 244 95 209
-6.296 -7.433 -0.2059 1 244 95 209
-6.308 -7.4282 -0.2032 1 244 95 209
-6.3219 -7.4256 -0.2028 1 244 95 209
-6.3356 -7.4223 -0.2029 1 244 95 209
-6.3495 -7.4198 -0.2037 1 244 95 209
-6.3613 -7.4151 -0.2044 1 244 95 209
-6.3747 -7.4119 -0.2048 1 244 95 209
-6.3899 -7.4107 -0.2047 1 244 95 209
-6.4036 -7.4077 -0.2048 1 244 95 209
-6.4189 -7.4065 -0.2044 1 244 95 209
-6.4341 -7.4052 -0.2064 1 244 95 209
-6.4458 -7.3999 -0.2056 1 244 95 209
-6.4613 -7.399 -0.2064 1 244 95 209
-6.4753 -7.3962 -0.2062 1 244 95 209
-6.4894 -7.3931 -0.2061 1 244 95 209
-6.5044 -7.3914 -0.2078 1 244 95 209
-6.5184 -7.3886 -0.2067 1 244 95 209
-6.5312 -7.3843 -0.2078 1 244 95 209
-6.5448 -7.3815 -0.2045 1 244 95 209
-6.5591 -7.3789 -0.2074 1 244 95 209
-6.5744 -7.3774 -0.2064 1 244 95 209
-6.5864 -7.3723 -0.2046 1 244 95 209
-6.6019 -7.3704 -0.2091 1 244 95 209
-6.6153 -7.3672 -0.2055 1 244 95 209
-6.6296 -7.3645 -0.2088 1 244 95 209
-6.6425 -7.3601 -0.2074 1 244 95 209
-6.657 -7.3572 -0.206 1 244 95 209
-6.6722 -7.3558 -0.2077 1 244 95 209
-6.6853 -7.3517 -0.2066 1 244 95 209
-6.7005 -7.3498 -0.2077 1 244 95 209
-6.7139 -7.346 -0.2085 1 244 95 209
-6.7289 -7.3439 -0.2074 1 244 95 209
-6.7425 -7.3402 -0.2091 1 244 95 209
-6.7558 -7.336 -0.2083 1 244 95 209
-6.7704 -7.3334 -0.2088 1 244 95 209
-6.8123 -7.3233 -0.2102 1 244 95 209
-6.8139 -7.3064 -0.2083 1 244 95 209
-6.8163 -7.2907 -0.2094 1 244 95 209
-4.8102 -7.7893 -0.2033 1 244 95 209
-5.3447 -7.6304 -0.2083 1 244 95 209
-5.3574 -7.6281 -0.2064 1 244 95 209
-5.3703 -7.6261 -0.2056 1 244 95 209
-5.3825 -7.6231 -0.2063 1 244 95 209
-5.3956 -7.6213 -0.2065 1 244 95 209
-5.4076 -7.6179 -0.2066 1 244 95 209
-5.4207 -7.616 -0.2073 1 244 95 209
-5.432 -7.6116 -0.2073 1 244 95 209
-5.4453 -7.6101 -0.2078 1 244 95 209
-5.4577 -7.6071 -0.2076 1 244 95 209
-5.4702 -7.6044 -0.2077 1 244 95 209
-5.4837 -7.6029 -0.2087 1 244 95 209
-5.4947 -7.5981 -0.2085 1 244 95 209
-5.5082 -7.5966 -0.2092 1 244 95 209
-5.5218 -7.5953 -0.2082 1 244 95 209
-5.5351 -7.5935 -0.2089 1 244 95 209
-5.5487 -7.5921 -0.21 1 244 95 209
-5.5621 -7.5903 -0.2098 1 244 95 209
-5.574 -7.5866 -0.207 1 244 95 209
-5.5865 -7.5835 -0.2074 1 244 95 209
-5.6 -7.582 -0.2102 1 244 95 209
-5.611 -7.577 -0.2114 1 244 95 209
-5.6267 -7.5781 -0.2078 1 244 95 209
-5.6448 -7.5826 -0.2087 1 244 95 209
-5.6553 -7.5769 -0.2085 1 244 95 209
-5.6648 -7.5697 -0.2085 1 244 95 209
-5.6768 -7.5659 -0.2097 1 244 95 209
-5.6888 -7.5621 -0.2089 1 244 95 209
-5.7024 -7.5604 -0.2097 1 244 95 209
-5.715 -7.5573 -0.2098 1 244 95 209
-5.7269 -7.5533 -0.2096 1 244 95 209
-5.742 -7.5534 -0.2107 1 244 95 209
-5.7543 -7.5499 -0.2099 1 244 95 209
-5.7668 -7.5467 -0.2112 1 244 95 209
-5.7838 -7.5491 -0.2109 1 244 95 209
-5.7927 -7.5411 -0.2112 1 244 95 209
-5.8068 -7.5399 -0.2119 1 244 95 209
-5.8198 -7.5372 -0.2112 1 244 95 209
-5.8311 -7.5321 -0.2124 1 244 95 209
-5.8445 -7.5299 -0.212 1 244 95 209
-5.8569 -7.5264 -0.2124 1 244 95 209
-5.8713 -7.5254 -0.2128 1 244 95 209
-5.885 -7.5234 -0.2121 1 244 95 209
-5.8978 -7.5203 -0.2104 1 244 95 209
-5.9151 -7.5228 -0.2134 1 244 95 209
-5.9245 -7.5148 -0.214 1 244 95 209
-5.9383 -7.5129 -0.2105 1 244 95 209
-5.9516 -7.5103 -0.2104 1 244 95 209
-5.964 -7.507 -0.2117 1 244 95 209
-5.9774 -7.5045 -0.2118 1 244 95 209
-5.9923 -7.5038 -0.2123 1 244 95 209
-6.0041 -7.4993 -0.2127 1 244 95 209
-6.0177 -7.497 -0.212 1 244 95 209
-6.0344 -7.4984 -0.2131 1 244 95 209
-6.0476 -7.4955 -0.2126 1 244 95 209
-6.0595 -7.491 -0.2136 1 244 95 209
-6.0728 -7.4881 -0.2138 1 244 95 209
-6.087 -7.4864 -0.2136 1 244 95 209
-6.0989 -7.4818 -0.2146 1 244 95 209
-6.1131 -7.48 -0.2145 1 244 95 209
-6.125 -7.4754 -0.2152 1 244 95 209
-6.1389 -7.4732 -0.2148 1 244 95 209
-6.1522 -7.4701 -0.2149 1 244 95 209
-6.1692 -7.4716 -0.2158 1 244 95 209
-6.1796 -7.4652 -0.2161 1 244 95 209
-6.1936 -7.4629 -0.2135 1 244 95 209
-6.2069 -7.4599 -0.2164 1 244 95 209
-6.2205 -7.4571 -0.2162 1 244 95 209
-6.2342 -7.4544 -0.2173 1 244 95 209
-6.2485 -7.4525 -0.2141 1 244 95 209
-6.2528 -7.4386 -0.2143 1 244 95 209
-6.27 -7.4401 -0.2145 1 244 95 209
-6.2826 -7.4361 -0.2146 1 244 95 209
-6.2965 -7.4336 -0.2182 1 244 95 209
-6.3093 -7.4297 -0.2155 1 244 95 209
-6.3207 -7.4242 -0.2153 1 244 95 209
-6.3355 -7.4222 -0.2155 1 244 95 209
-6.3489 -7.419 -0.2162 1 244 95 209
-6.3622 -7.4162 -0.2167 1 244 95 209
-6.3755 -7.4127 -0.2168 1 244 95 209
-6.3889 -7.4095 -0.2169 1 244 95 209
-6.4025 -7.4064 -0.2171 1 244 95 209
-6.4182 -7.4058 -0.2167 1 244 95 209
-6.4322 -7.4031 -0.2187 1 244 95 209
-6.4447 -7.3987 -0.2179 1 244 95 209
-6.4606 -7.3981 -0.2184 1 244 95 209
-6.4746 -7.3954 -0.2189 1 244 95 209
-6.4884 -7.3919 -0.2184 1 244 95 209
-6.5043 -7.3912 -0.2199 1 244 95 209
-6.5179 -7.388 -0.2191 1 244 95 209
-6.532 -7.3853 -0.2202 1 244 95 209
-6.546 -7.3828 -0.2166 1 244 95 209
-6.5586 -7.3784 -0.2198 1 244 95 209
-6.5737 -7.3766 -0.2185 1 244 95 209
-6.5866 -7.3724 -0.217 1 244 95 209
-6.6014 -7.3699 -0.2213 1 244 95 209
-6.6152 -7.367 -0.2183 1 244 95 209
-6.6293 -7.3642 -0.2213 1 244 95 209
-6.6426 -7.3603 -0.2198 1 244 95 209
-6.6568 -7.357 -0.2184 1 244 95 209
-6.6705 -7.3539 -0.2202 1 244 95 209
-6.6841 -7.3504 -0.2191 1 244 95 209
-6.6996 -7.3488 -0.2202 1 244 95 209
-6.7148 -7.347 -0.221 1 244 95 209
-6.7282 -7.343 -0.2199 1 244 95 209
-6.7429 -7.3405 -0.222 1 244 95 209
-6.7559 -7.3361 -0.2208 1 244 95 209
-6.7702 -7.3332 -0.2213 1 244 95 209
-6.7829 -7.3284 -0.2227 1 244 95 209
-6.7962 -7.3244 -0.2216 1 244 95 209
-6.8125 -7.3234 -0.2227 1 244 95 209
-6.8169 -7.3097 -0.2213 1 244 95 209
-6.8182 -7.2927 -0.222 1 244 95 209
-4.8121 -7.7924 -0.2149 1 244 95 209
-5.3696 -7.6251 -0.2173 1 244 95 209
-5.3826 -7.6231 -0.2184 1 244 95 209
-5.3961 -7.622 -0.2185 1 244 95 209
-5.4074 -7.6176 -0.2183 1 244 95 209
-5.4201 -7.6152 -0.219 1 244 95 209
-5.4329 -7.6129 -0.2191 1 244 95 209
-5.4452 -7.6098 -0.2195 1 244 95 209
-5.458 -7.6076 -0.2194 1 244 95 209
-5.4698 -7.6038 -0.2195 1 244 95 209
-5.4829 -7.6018 -0.2202 1 244 95 209
-5.495 -7.5985 -0.22 1 244 95 209
-5.5092 -7.598 -0.2208 1 244 95 209
-5.5239 -7.5982 -0.2204 1 244 95 209
-5.5346 -7.5928 -0.221 1 244 95 209
-5.5478 -7.5908 -0.2218 1 244 95 209
-5.561 -7.5888 -0.2213 1 244 95 209
-5.5729 -7.5851 -0.2188 1 244 95 209
-5.5849 -7.5815 -0.2192 1 244 95 209
-5.5983 -7.5797 -0.2217 1 244 95 209
-5.6127 -7.5792 -0.2234 1 244 95 209
-5.6257 -7.5769 -0.2196 1 244 95 209
-5.6426 -7.5797 -0.2205 1 244 95 209
