-5.6082 -7.6342 2.9639 1 203 180 10
-5.6206 -7.631 2.9654 1 203 180 10
-5.6334 -7.6283 2.9641 1 203 180 10
-5.6465 -7.6254 2.9645 1 203 180 10
-5.6592 -7.623 2.9705 1 203 180 10
-5.6724 -7.6207 2.9714 1 203 180 10
-5.6852 -7.6175 2.9737 1 203 180 10
-5.6986 -7.6155 2.9757 1 203 180 10
-5.7117 -7.6131 2.9762 1 203 180 10
-5.7237 -7.609 2.9784 1 203 180 10
-5.7368 -7.6065 2.9796 1 203 180 10
-5.7503 -7.6046 2.982 1 203 180 10
-5.7633 -7.6019 2.9838 1 203 180 10
-5.7765 -7.5995 2.9847 1 203 180 10
-5.7888 -7.5958 2.9868 1 203 180 10
-5.803 -7.5946 2.9885 1 203 180 10
-5.8153 -7.5909 2.9903 1 203 180 10
-5.8291 -7.5891 2.9921 1 203 180 10
-5.842 -7.5861 2.9932 1 203 180 10
-5.8551 -7.5835 2.996 1 203 180 10
-5.8679 -7.5803 2.9963 1 203 180 10
-5.8814 -7.5781 2.9994 1 203 180 10
-5.8953 -7.5762 3.0003 1 203 180 10
-5.9078 -7.5731 3.0026 1 203 180 10
-5.9205 -7.5698 3.0045 1 203 180 10
-5.9351 -7.5684 3.0097 1 203 180 10
-5.9476 -7.5647 3.0082 1 203 180 10
-5.9613 -7.5626 3.009 1 203 180 10
-5.9748 -7.5602 3.0153 1 203 180 10
-5.9888 -7.5583 3.0179 1 203 180 10
-6.0017 -7.5551 3.0183 1 203 180 10
-6.0152 -7.5525 3.0203 1 203 180 10
-6.0282 -7.5493 3.0217 1 203 180 10
-6.0424 -7.5477 3.0244 1 203 180 10
-6.0554 -7.5444 3.0265 1 203 180 10
-6.069 -7.542 3.0279 1 203 180 10
-6.0824 -7.5392 3.0302 1 203 180 10
-6.095 -7.5355 3.0304 1 203 180 10
-6.1094 -7.5338 3.0338 1 203 180 10
-6.1218 -7.5298 3.035 1 203 180 10
-6.1367 -7.5292 3.0374 1 203 180 10
-6.1497 -7.5254 3.0391 1 203 180 10
-6.1637 -7.5232 3.0407 1 203 180 10
-6.1762 -7.5192 3.0428 1 203 180 10
-6.1904 -7.5171 3.0448 1 203 180 10
-6.2041 -7.5146 3.0463 1 203 180 10
-6.2183 -7.5124 3.0486 1 203 180 10
-6.2317 -7.5094 3.0532 1 203 180 10
-6.2447 -7.5059 3.0523 1 203 180 10
-6.2583 -7.5031 3.054 1 203 180 10
-6.272 -7.5003 3.0554 1 203 180 10
-6.2864 -7.4984 3.0615 1 203 180 10
-6.2999 -7.4958 3.0633 1 203 180 10
-6.3132 -7.4925 3.0652 1 203 180 10
-6.3277 -7.4905 3.0673 1 203 180 10
-6.3416 -7.4874 3.066 1 203 180 10
-6.3545 -7.4836 3.0707 1 203 180 10
-6.3684 -7.4808 3.0732 1 203 180 10
-6.3836 -7.4796 3.0764 1 203 180 10
-6.3976 -7.477 3.0779 1 203 180 10
-6.4113 -7.4739 3.0793 1 203 180 10
-6.4246 -7.4705 3.0815 1 203 180 10
-6.4382 -7.4672 3.0832 1 203 180 10
-6.4518 -7.4641 3.0855 1 203 180 10
-6.466 -7.4619 3.0883 1 203 180 10
-6.4805 -7.4593 3.0889 1 203 180 10
-6.4942 -7.4561 3.092 1 203 180 10
-6.5082 -7.4532 3.0932 1 203 180 10
-6.5229 -7.4511 3.0964 1 203 180 10
-6.5363 -7.4475 3.0986 1 203 180 10
-6.5511 -7.4454 3.0995 1 203 180 10
-6.5634 -7.4406 3.1023 1 203 180 10
-6.5786 -7.439 3.1034 1 203 180 10
-6.5921 -7.4354 3.1098 1 203 180 10
-6.6056 -7.4318 3.1083 1 203 180 10
-6.6205 -7.4297 3.1129 1 203 180 10
-6.6338 -7.4258 3.1162 1 203 180 10
-6.6482 -7.4231 3.1137 1 203 180 10
-6.6626 -7.4205 3.1203 1 203 180 10
-7.1327 -7.347 3.2024 1 203 180 10
-7.1424 -7.3385 3.202 1 203 180 10
-7.152 -7.33 3.2028 1 203 180 10
-7.1625 -7.3223 3.2031 1 203 180 10
-7.1715 -7.313 3.2037 1 203 180 10
-7.1832 -7.3066 3.2037 1 203 180 10
-7.1957 -7.3009 3.2049 1 203 180 10
-4.8698 -7.7773 2.8562 1 203 180 10
-4.9426 -7.7622 2.864 1 203 180 10
-4.9547 -7.7598 2.8644 1 203 180 10
-4.967 -7.7576 2.8675 1 203 180 10
-4.9792 -7.7551 2.8673 1 203 180 10
-4.9918 -7.7532 2.8724 1 203 180 10
-5.0045 -7.7515 2.8706 1 203 180 10
-5.0156 -7.7474 2.874 1 203 180 10
-5.029 -7.7467 2.8777 1 203 180 10
-5.0418 -7.7451 2.8747 1 203 180 10
-5.0536 -7.7419 2.8793 1 203 180 10
-5.0651 -7.7389 2.8773 1 203 180 10
-5.0783 -7.7373 2.8817 1 203 180 10
-5.0911 -7.7355 2.8844 1 203 180 10
-5.1033 -7.7328 2.8848 1 203 180 10
-5.115 -7.7295 2.886 1 203 180 10
-5.128 -7.728 2.8872 1 203 180 10
-5.1394 -7.7241 2.8881 1 203 180 10
-5.1533 -7.7238 2.8917 1 203 180 10
-5.1644 -7.7195 2.8912 1 203 180 10
-5.1782 -7.7192 2.8932 1 203 180 10
-5.1898 -7.7153 2.8943 1 203 180 10
-5.2021 -7.7128 2.8954 1 203 180 10
-5.2142 -7.7098 2.898 1 203 180 10
-5.2272 -7.708 2.8986 1 203 180 10
-5.2396 -7.7055 2.8994 1 203 180 10
-5.2514 -7.7025 2.9014 1 203 180 10
-5.2643 -7.7007 2.9022 1 203 180 10
-5.277 -7.6984 2.9055 1 203 180 10
-5.2898 -7.6964 2.9053 1 203 180 10
-5.3019 -7.6933 2.9108 1 203 180 10
-5.3148 -7.6912 2.909 1 203 180 10
-5.3269 -7.6876 2.9128 1 203 180 10
-5.3399 -7.6857 2.913 1 203 180 10
-5.353 -7.6845 2.9163 1 203 180 10
-5.3664 -7.6826 2.9189 1 203 180 10
-5.3779 -7.6785 2.9167 1 203 180 10
-5.3906 -7.6766 2.9207 1 203 180 10
-5.4031 -7.6738 2.9229 1 203 180 10
-5.4162 -7.6719 2.9241 1 203 180 10
-5.4281 -7.6683 2.9257 1 203 180 10
-5.4415 -7.6663 2.9275 1 203 180 10
-5.4666 -7.6607 2.9297 1 203 180 10
-5.4794 -7.6582 2.9317 1 203 180 10
-5.4912 -7.655 2.9334 1 203 180 10
-5.5056 -7.6541 2.9354 1 203 180 10
-5.518 -7.6512 2.9363 1 203 180 10
-5.5304 -7.648 2.9377 1 203 180 10
-5.5442 -7.6468 2.9396 1 203 180 10
-5.5563 -7.6433 2.9423 1 203 180 10
-5.5691 -7.6408 2.9427 1 203 180 10
-5.5821 -7.6384 2.9438 1 203 180 10
-5.5944 -7.6351 2.9459 1 203 180 10
-5.6079 -7.6339 2.951 1 203 180 10
-5.6201 -7.6303 2.952 1 203 180 10
-5.6325 -7.627 2.9505 1 203 180 10
-5.6464 -7.6253 2.9514 1 203 180 10
-5.6583 -7.6218 2.9566 1 203 180 10
-5.6717 -7.6198 2.9583 1 203 180 10
-5.6856 -7.618 2.9611 1 203 180 10
-5.6974 -7.6139 2.962 1 203 180 10
-5.7103 -7.6111 2.9627 1 203 180 10
-5.7237 -7.609 2.9653 1 203 180 10
-5.7367 -7.6064 2.9664 1 203 180 10
-5.7499 -7.6041 2.9687 1 203 180 10
-5.7633 -7.6018 2.9703 1 203 180 10
-5.7772 -7.6004 2.9719 1 203 180 10
-5.7894 -7.5966 2.9739 1 203 180 10
-5.8012 -7.5922 2.9741 1 203 180 10
-5.8153 -7.5909 2.9774 1 203 180 10
-5.8287 -7.5886 2.9787 1 203 180 10
-5.8416 -7.5857 2.9801 1 203 180 10
-5.8545 -7.5826 2.9825 1 203 180 10
-5.8687 -7.5813 2.9835 1 203 180 10
-5.8816 -7.5783 2.9862 1 203 180 10
-5.8941 -7.5748 2.9868 1 203 180 10
-5.9078 -7.5732 2.9893 1 203 180 10
-5.9211 -7.5706 2.9919 1 203 180 10
-5.934 -7.567 2.9958 1 203 180 10
-5.9478 -7.565 2.9947 1 203 180 10
-5.9607 -7.5618 2.9951 1 203 180 10
-5.9742 -7.5594 3.0017 1 203 180 10
-5.988 -7.5573 3.0042 1 203 180 10
-6.0019 -7.5553 3.0051 1 203 180 10
-6.0155 -7.5529 3.0074 1 203 180 10
-6.0284 -7.5496 3.0085 1 203 180 10
-6.0423 -7.5475 3.0107 1 203 180 10
-6.0551 -7.5441 3.013 1 203 180 10
-6.0688 -7.5417 3.0141 1 203 180 10
-6.0825 -7.5394 3.0166 1 203 180 10
-6.0952 -7.5357 3.0175 1 203 180 10
-6.1088 -7.5331 3.0198 1 203 180 10
-6.1232 -7.5315 3.0223 1 203 180 10
-6.1359 -7.5283 3.0234 1 203 180 10
-6.1504 -7.5262 3.0257 1 203 180 10
-6.1639 -7.5234 3.027 1 203 180 10
-6.1776 -7.5209 3.0298 1 203 180 10
-6.19 -7.5167 3.0309 1 203 180 10
-6.2036 -7.514 3.0326 1 203 180 10
-6.2176 -7.5116 3.0348 1 203 180 10
-6.232 -7.5098 3.0399 1 203 180 10
-6.2454 -7.5067 3.0391 1 203 180 10
-6.2598 -7.5048 3.0412 1 203 180 10
-6.2723 -7.5006 3.0421 1 203 180 10
-6.286 -7.4979 3.0478 1 203 180 10
-6.2995 -7.4953 3.0493 1 203 180 10
-6.3134 -7.4926 3.0521 1 203 180 10
-6.327 -7.4896 3.0538 1 203 180 10
-6.3416 -7.4874 3.0524 1 203 180 10
-6.3552 -7.4844 3.0579 1 203 180 10
-6.3686 -7.4811 3.0598 1 203 180 10
-6.3826 -7.4784 3.0623 1 203 180 10
-6.3974 -7.4767 3.0642 1 203 180 10
-6.4113 -7.474 3.0661 1 203 180 10
-6.4247 -7.4705 3.0676 1 203 180 10
-6.4383 -7.4674 3.0693 1 203 180 10
-6.4522 -7.4645 3.0718 1 203 180 10
-6.4663 -7.4623 3.0748 1 203 180 10
-6.4797 -7.4583 3.0746 1 203 180 10
-6.4936 -7.4554 3.0781 1 203 180 10
-6.508 -7.4529 3.0794 1 203 180 10
-6.522 -7.4501 3.082 1 203 180 10
-6.5368 -7.4481 3.0852 1 203 180 10
-6.5497 -7.4439 3.0852 1 203 180 10
-6.5629 -7.44 3.0884 1 203 180 10
-6.5789 -7.4393 3.0898 1 203 180 10
-6.5912 -7.4343 3.0956 1 203 180 10
-6.6061 -7.4323 3.0945 1 203 180 10
-6.6206 -7.4298 3.0993 1 203 180 10
-6.6346 -7.4267 3.1028 1 203 180 10
-6.6484 -7.4234 3.1001 1 203 180 10
-6.6627 -7.4205 3.1066 1 203 180 10
-7.1324 -7.3467 3.1882 1 203 180 10
-7.1423 -7.3385 3.1878 1 203 180 10
-7.1519 -7.3298 3.1887 1 203 180 10
-7.1619 -7.3217 3.1887 1 203 180 10
-7.1729 -7.3145 3.1906 1 203 180 10
-7.1837 -7.3072 3.1895 1 203 180 10
-7.1951 -7.3003 3.1905 1 203 180 10
-4.8693 -7.7766 2.8436 1 203 180 10
-4.9422 -7.7617 2.8511 1 203 180 10
-4.9551 -7.7604 2.852 1 203 180 10
-4.968 -7.759 2.8554 1 203 180 10
-4.9792 -7.7551 2.8546 1 203 180 10
-4.992 -7.7536 2.8602 1 203 180 10
-5.0038 -7.7505 2.8573 1 203 180 10
-5.016 -7.748 2.8615 1 203 180 10
-5.029 -7.7466 2.8649 1 203 180 10
-5.041 -7.7438 2.8615 1 203 180 10
-5.054 -7.7425 2.8668 1 203 180 10
-5.0656 -7.7396 2.8645 1 203 180 10
-5.0782 -7.737 2.8689 1 203 180 10
-5.0909 -7.7352 2.8715 1 203 180 10
-5.1029 -7.7322 2.8718 1 203 180 10
-5.1149 -7.7293 2.8731 1 203 180 10
-5.1273 -7.727 2.874 1 203 180 10
-5.1403 -7.7253 2.8758 1 203 180 10
-5.1525 -7.7226 2.8785 1 203 180 10
-5.1647 -7.7199 2.8786 1 203 180 10
-5.1776 -7.7181 2.8801 1 203 180 10
-5.1897 -7.7153 2.8814 1 203 180 10
-5.2024 -7.7132 2.8828 1 203 180 10
-5.2142 -7.7097 2.8849 1 203 180 10
-5.2275 -7.7085 2.8859 1 203 180 10
-5.2399 -7.7059 2.8867 1 203 180 10
-5.2514 -7.7026 2.8886 1 203 180 10
-5.2636 -7.6996 2.8893 1 203 180 10
-5.2768 -7.6982 2.8925 1 203 180 10
-5.2897 -7.6961 2.8926 1 203 180 10
-5.3024 -7.694 2.8979 1 203 180 10
-5.3148 -7.6912 2.8965 1 203 180 10
-5.3275 -7.6884 2.9002 1 203 180 10
-5.3401 -7.6859 2.9002 1 203 180 10
-5.3528 -7.6841 2.9036 1 203 180 10
-5.3654 -7.681 2.9054 1 203 180 10
-5.3779 -7.6784 2.9037 1 203 180 10
-5.3905 -7.6764 2.908 1 203 180 10
-5.4032 -7.6739 2.91 1 203 180 10
-5.4156 -7.6711 2.9108 1 203 180 10
-5.4284 -7.6687 2.9128 1 203 180 10
-5.4415 -7.6662 2.9146 1 203 180 10
-5.4668 -7.661 2.9168 1 203 180 10
-5.4793 -7.6581 2.9184 1 203 180 10
-5.493 -7.6575 2.921 1 203 180 10
-5.5047 -7.6529 2.9223 1 203 180 10
-5.5177 -7.6507 2.9231 1 203 180 10
-5.5308 -7.6487 2.925 1 203 180 10
-5.5435 -7.6459 2.9262 1 203 180 10
-5.5562 -7.6432 2.9289 1 203 180 10
-5.5691 -7.6407 2.93 1 203 180 10
-5.5812 -7.6372 2.9303 1 203 180 10
-5.5941 -7.6346 2.9323 1 203 180 10
-5.608 -7.6339 2.9377 1 203 180 10
-5.6209 -7.6315 2.9394 1 203 180 10
-5.6328 -7.6275 2.9377 1 203 180 10
-5.6464 -7.6253 2.9383 1 203 180 10
-5.66 -7.6241 2.9448 1 203 180 10
-5.6719 -7.6202 2.945 1 203 180 10
-5.6855 -7.6178 2.9476 1 203 180 10
-5.6986 -7.6154 2.9494 1 203 180 10
-5.7112 -7.6123 2.9497 1 203 180 10
-5.7237 -7.609 2.9522 1 203 180 10
-5.7366 -7.6063 2.9533 1 203 180 10
-5.7499 -7.604 2.9555 1 203 180 10
-5.7629 -7.6013 2.9573 1 203 180 10
-5.7753 -7.5979 2.9578 1 203 180 10
-5.7898 -7.5971 2.961 1 203 180 10
-5.8019 -7.5932 2.9616 1 203 180 10
-5.8155 -7.5912 2.9644 1 203 180 10
-5.8284 -7.5882 2.9654 1 203 180 10
-5.8416 -7.5856 2.9666 1 203 180 10
-5.8547 -7.5829 2.9694 1 203 180 10
-5.8679 -7.5803 2.9699 1 203 180 10
-5.8813 -7.5779 2.9729 1 203 180 10
-5.8941 -7.5748 2.9732 1 203 180 10
-5.9071 -7.5723 2.9758 1 203 180 10
-5.9203 -7.5695 2.9779 1 203 180 10
-5.9344 -7.5675 2.9828 1 203 180 10
-5.9472 -7.5643 2.9815 1 203 180 10
-5.9609 -7.562 2.9822 1 203 180 10
-5.9735 -7.5585 2.9881 1 203 180 10
-5.9882 -7.5575 2.991 1 203 180 10
-6.0009 -7.5541 2.9913 1 203 180 10
-6.015 -7.5522 2.9936 1 203 180 10
-6.0288 -7.5502 2.9951 1 203 180 10
-6.042 -7.5472 2.9972 1 203 180 10
-6.0556 -7.5448 3 1 203 180 10
-6.0695 -7.5426 3.0015 1 203 180 10
-6.0825 -7.5393 3.0032 1 203 180 10
-6.0958 -7.5365 3.0041 1 203 180 10
-6.1095 -7.5339 3.0068 1 203 180 10
-6.1234 -7.5317 3.009 1 203 180 10
-6.1363 -7.5288 3.0105 1 203 180 10
-6.1503 -7.5261 3.0126 1 203 180 10
-6.1634 -7.5228 3.0137 1 203 180 10
-6.1767 -7.5198 3.0159 1 203 180 10
-6.1903 -7.517 3.018 1 203 180 10
-6.2042 -7.5147 3.0195 1 203 180 10
-6.2186 -7.5128 3.0218 1 203 180 10
-6.232 -7.5097 3.0265 1 203 180 10
-6.2458 -7.5072 3.0259 1 203 180 10
-6.2585 -7.5032 3.0275 1 203 180 10
-6.2725 -7.5009 3.029 1 203 180 10
-6.2865 -7.4984 3.0342 1 203 180 10
-6.2998 -7.4956 3.0362 1 203 180 10
-6.3132 -7.4924 3.0382 1 203 180 10
-6.3273 -7.4901 3.0401 1 203 180 10
-6.342 -7.4879 3.0391 1 203 180 10
-6.3551 -7.4843 3.0443 1 203 180 10
-6.3694 -7.482 3.0466 1 203 180 10
-6.3832 -7.4791 3.049 1 203 180 10
-6.3979 -7.4773 3.0509 1 203 180 10
-6.4105 -7.473 3.0517 1 203 180 10
-6.4249 -7.4708 3.0545 1 203 180 10
-6.4384 -7.4675 3.0561 1 203 180 10
-6.4526 -7.4649 3.0587 1 203 180 10
-6.4651 -7.4609 3.0607 1 203 180 10
-6.4798 -7.4584 3.0614 1 203 180 10
-6.494 -7.4559 3.0647 1 203 180 10
-6.5074 -7.4523 3.0656 1 203 180 10
-6.5223 -7.4504 3.0688 1 203 180 10
-6.5359 -7.4471 3.0712 1 203 180 10
-6.5505 -7.4448 3.0719 1 203 180 10
-6.5639 -7.4411 3.0752 1 203 180 10
-6.5775 -7.4377 3.0754 1 203 180 10
-6.5924 -7.4357 3.0825 1 203 180 10
-6.6073 -7.4337 3.0817 1 203 180 10
-6.6199 -7.4291 3.0853 1 203 180 10
-6.635 -7.4271 3.0893 1 203 180 10
-6.6494 -7.4245 3.0869 1 203 180 10
-6.6632 -7.4211 3.0934 1 203 180 10
-7.1315 -7.3458 3.1737 1 203 180 10
-7.141 -7.3371 3.1731 1 203 180 10
-7.1516 -7.3295 3.1744 1 203 180 10
-7.1615 -7.3213 3.1744 1 203 180 10
-7.1727 -7.3143 3.176 1 203 180 10
-7.1831 -7.3065 3.1754 1 203 180 10
-7.1959 -7.3011 3.1767 1 203 180 10
-4.9544 -7.7593 2.8389 1 203 180 10
-4.9667 -7.7571 2.842 1 203 180 10
-4.9794 -7.7554 2.8421 1 203 180 10
-4.9917 -7.7531 2.847 1 203 180 10
-5.0038 -7.7505 2.8449 1 203 180 10
-5.0166 -7.749 2.8492 1 203 180 10
-5.0293 -7.7471 2.8524 1 203 180 10
-5.0406 -7.7433 2.8485 1 203 180 10
-5.0525 -7.7402 2.8533 1 203 180 10
-5.0654 -7.7393 2.852 1 203 180 10
-5.0783 -7.7372 2.8562 1 203 180 10
-5.0907 -7.7349 2.859 1 203 180 10
-5.1026 -7.7317 2.8589 1 203 180 10
-5.1154 -7.73 2.8606 1 203 180 10
-5.1284 -7.7285 2.8618 1 203 180 10
-5.14 -7.725 2.8629 1 203 180 10
-5.1527 -7.723 2.8659 1 203 180 10
-5.1653 -7.7208 2.8665 1 203 180 10
-5.1777 -7.7183 2.8673 1 203 180 10
-5.1897 -7.7152 2.8689 1 203 180 10
-5.2025 -7.7134 2.87 1 203 180 10
-5.2151 -7.7111 2.8729 1 203 180 10
-5.2276 -7.7087 2.8732 1 203 180 10
-5.2396 -7.7055 2.8738 1 203 180 10
-5.2515 -7.7027 2.8758 1 203 180 10
-5.2643 -7.7006 2.8768 1 203 180 10
-5.2762 -7.6973 2.8794 1 203 180 10
-5.2898 -7.6964 2.8799 1 203 180 10
-5.3022 -7.6936 2.8852 1 203 180 10
-5.3145 -7.6908 2.8831 1 203 180 10
-5.3274 -7.6883 2.8873 1 203 180 10
-5.3405 -7.6865 2.8875 1 203 180 10
-5.3529 -7.6843 2.8905 1 203 180 10
-5.3659 -7.6817 2.8928 1 203 180 10
-5.3778 -7.6783 2.8908 1 203 180 10
-5.3904 -7.6762 2.8947 1 203 180 10
-5.4033 -7.6741 2.8974 1 203 180 10
-5.4156 -7.671 2.8979 1 203 180 10
-5.4283 -7.6686 2.8999 1 203 180 10
-5.4405 -7.6648 2.9011 1 203 180 10
-5.467 -7.6612 2.904 1 203 180 10
-5.4793 -7.6582 2.9058 1 203 180 10
-5.4923 -7.6565 2.908 1 203 180 10
-5.5042 -7.6522 2.9087 1 203 180 10
-5.5179 -7.651 2.9102 1 203 180 10
-5.5299 -7.6473 2.9115 1 203 180 10
-5.543 -7.6452 2.913 1 203 180 10
-5.5557 -7.6425 2.9159 1 203 180 10
-5.5693 -7.6409 2.9167 1 203 180 10
-5.5823 -7.6387 2.9182 1 203 180 10
-5.5938 -7.6342 2.9195 1 203 180 10
-5.6073 -7.6331 2.9246 1 203 180 10
-5.6202 -7.6305 2.926 1 203 180 10
-5.6332 -7.6279 2.9248 1 203 180 10
-5.6465 -7.6254 2.9256 1 203 180 10
-5.6589 -7.6226 2.9308 1 203 180 10
-5.6724 -7.6208 2.9325 1 203 180 10
-5.6855 -7.6179 2.9349 1 203 180 10
-5.6979 -7.6146 2.936 1 203 180 10
-5.7106 -7.6115 2.9366 1 203 180 10
-5.7238 -7.6091 2.9391 1 203 180 10
-5.7371 -7.607 2.9404 1 203 180 10
-5.7503 -7.6045 2.9426 1 203 180 10
-5.7622 -7.6005 2.9435 1 203 180 10
-5.7768 -7.5998 2.9454 1 203 180 10
-5.7893 -7.5964 2.9476 1 203 180 10
-5.8026 -7.594 2.9488 1 203 180 10
-5.8158 -7.5915 2.9513 1 203 180 10
-5.8283 -7.588 2.9522 1 203 180 10
-5.8412 -7.5851 2.9535 1 203 180 10
-5.8552 -7.5836 2.9565 1 203 180 10
-5.8681 -7.5805 2.9568 1 203 180 10
-5.8804 -7.5768 2.9596 1 203 180 10
-5.8938 -7.5743 2.9602 1 203 180 10
-5.9078 -7.5731 2.9629 1 203 180 10
-5.9207 -7.5701 2.9653 1 203 180 10
-5.9339 -7.5668 2.9693 1 203 180 10
-5.9475 -7.5646 2.968 1 203 180 10
-5.9609 -7.562 2.969 1 203 180 10
-5.9747 -7.56 2.9754 1 203 180 10
-5.9877 -7.5569 2.9775 1 203 180 10
-6.0009 -7.554 2.978 1 203 180 10
-6.0152 -7.5526 2.9804 1 203 180 10
-6.0279 -7.549 2.9817 1 203 180 10
-6.043 -7.5485 2.9844 1 203 180 10
-6.0544 -7.5432 2.986 1 203 180 10
-6.0691 -7.5421 2.9876 1 203 180 10
-6.0828 -7.5397 2.99 1 203 180 10
-6.0955 -7.536 2.9909 1 203 180 10
-6.1085 -7.5327 2.993 1 203 180 10
-6.1226 -7.5307 2.9952 1 203 180 10
-6.1361 -7.5285 2.9967 1 203 180 10
-6.1493 -7.5248 2.9987 1 203 180 10
-6.1634 -7.5228 3 1 203 180 10
-6.1768 -7.5199 3.0029 1 203 180 10
-6.1907 -7.5175 3.0047 1 203 180 10
-6.2041 -7.5145 3.006 1 203 180 10
-6.2183 -7.5125 3.0083 1 203 180 10
-6.2313 -7.5089 3.0127 1 203 180 10
-6.2454 -7.5067 3.0123 1 203 180 10
-6.2597 -7.5047 3.0143 1 203 180 10
-6.2725 -7.5009 3.0152 1 203 180 10
-6.2866 -7.4985 3.0212 1 203 180 10
-6.2996 -7.4954 3.0227 1 203 180 10
-6.3142 -7.4936 3.0255 1 203 180 10
-6.3272 -7.4899 3.0269 1 203 180 10
-6.3406 -7.4863 3.025 1 203 180 10
-6.3556 -7.4848 3.031 1 203 180 10
-6.3694 -7.482 3.0331 1 203 180 10
-6.3828 -7.4787 3.0353 1 203 180 10
-6.3961 -7.4752 3.0365 1 203 180 10
-6.4105 -7.473 3.0386 1 203 180 10
-6.4243 -7.4701 3.0403 1 203 180 10
-6.4394 -7.4686 3.0427 1 203 180 10
-6.4523 -7.4646 3.045 1 203 180 10
-6.466 -7.4619 3.0475 1 203 180 10
-6.4806 -7.4593 3.0478 1 203 180 10
-6.4939 -7.4557 3.051 1 203 180 10
-6.5086 -7.4537 3.0525 1 203 180 10
-6.5228 -7.451 3.0551 1 203 180 10
-6.5364 -7.4476 3.0577 1 203 180 10
-6.55 -7.4442 3.058 1 203 180 10
-6.5648 -7.4422 3.0619 1 203 180 10
-6.5784 -7.4388 3.0622 1 203 180 10
-6.5924 -7.4357 3.0692 1 203 180 10
-6.6064 -7.4326 3.0672 1 203 180 10
-6.6209 -7.4301 3.072 1 203 180 10
-6.6355 -7.4277 3.0758 1 203 180 10
-6.6491 -7.4242 3.073 1 203 180 10
-6.6614 -7.4191 3.0785 1 203 180 10
-7.1222 -7.3546 3.1606 1 203 180 10
-7.1317 -7.3459 3.1597 1 203 180 10
-7.1424 -7.3385 3.1596 1 203 180 10
-7.1511 -7.329 3.1601 1 203 180 10
-7.1612 -7.3209 3.1601 1 203 180 10
-7.1723 -7.3139 3.1621 1 203 180 10
-7.1823 -7.3057 3.1607 1 203 180 10
-7.1946 -7.2999 3.162 1 203 180 10
-4.9425 -7.7622 2.826 1 203 180 10
-4.967 -7.7575 2.8295 1 203 180 10
-4.9794 -7.7554 2.8294 1 203 180 10
-4.9919 -7.7534 2.8348 1 203 180 10
-5.0035 -7.7499 2.8317 1 203 180 10
-5.0164 -7.7486 2.8363 1 203 180 10
-5.0289 -7.7465 2.8395 1 203 180 10
-5.0412 -7.7441 2.8361 1 203 180 10
-5.0534 -7.7416 2.8411 1 203 180 10
-5.0654 -7.7392 2.839 1 203 180 10
-5.0776 -7.7361 2.8431 1 203 180 10
-5.0906 -7.7347 2.8458 1 203 180 10
-5.103 -7.7323 2.8464 1 203 180 10
-5.1147 -7.7289 2.8475 1 203 180 10
-5.1277 -7.7274 2.8487 1 203 180 10
-5.1406 -7.7258 2.8504 1 203 180 10
-5.1524 -7.7224 2.8532 1 203 180 10
-5.1652 -7.7206 2.8536 1 203 180 10
-5.1777 -7.7184 2.8546 1 203 180 10
-5.1894 -7.7148 2.8557 1 203 180 10
-5.2019 -7.7124 2.8569 1 203 180 10
-5.2154 -7.7115 2.8599 1 203 180 10
-5.2278 -7.709 2.8605 1 203 180 10
-5.2397 -7.7057 2.861 1 203 180 10
-5.2516 -7.7029 2.863 1 203 180 10
-5.2639 -7.7 2.8638 1 203 180 10
-5.277 -7.6985 2.867 1 203 180 10
-5.2895 -7.6959 2.8669 1 203 180 10
-5.3018 -7.6931 2.8722 1 203 180 10
-5.3149 -7.6914 2.8708 1 203 180 10
-5.3273 -7.6882 2.8744 1 203 180 10
-5.34 -7.6858 2.8744 1 203 180 10
-5.3517 -7.6825 2.8772 1 203 180 10
-5.3649 -7.6803 2.8793 1 203 180 10
-5.3772 -7.6774 2.8775 1 203 180 10
-5.3904 -7.6762 2.8822 1 203 180 10
-5.4024 -7.6728 2.8837 1 203 180 10
-5.4152 -7.6705 2.8848 1 203 180 10
-5.4282 -7.6685 2.8869 1 203 180 10
-5.4409 -7.6655 2.8884 1 203 180 10
-5.4669 -7.6611 2.8913 1 203 180 10
-5.4794 -7.6582 2.8925 1 203 180 10
-5.4927 -7.657 2.8949 1 203 180 10
-5.5043 -7.6524 2.8962 1 203 180 10
-5.5181 -7.6512 2.8974 1 203 180 10
-5.5307 -7.6485 2.8989 1 203 180 10
-5.5439 -7.6464 2.9005 1 203 180 10
-5.5562 -7.6432 2.9029 1 203 180 10
-5.5694 -7.6412 2.9041 1 203 180 10
-5.5823 -7.6386 2.9048 1 203 180 10
-5.5948 -7.6356 2.9067 1 203 180 10
-5.6071 -7.6327 2.9111 1 203 180 10
-5.6194 -7.6294 2.9129 1 203 180 10
-5.6326 -7.6272 2.9115 1 203 180 10
-5.6462 -7.625 2.9121 1 203 180 10
-5.6591 -7.6229 2.9182 1 203 180 10
-5.6726 -7.621 2.9195 1 203 180 10
-5.6841 -7.616 2.9211 1 203 180 10
-5.698 -7.6147 2.923 1 203 180 10
-5.7108 -7.6118 2.9233 1 203 180 10
-5.7243 -7.6099 2.9263 1 203 180 10
-5.737 -7.6068 2.9273 1 203 180 10
-5.7505 -7.6048 2.9296 1 203 180 10
-5.7627 -7.6011 2.931 1 203 180 10
-5.776 -7.5987 2.9322 1 203 180 10
-5.7887 -7.5957 2.9341 1 203 180 10
-5.8028 -7.5943 2.9358 1 203 180 10
-5.8149 -7.5904 2.9377 1 203 180 10
-5.8279 -7.5876 2.9388 1 203 180 10
-5.8416 -7.5856 2.9406 1 203 180 10
-5.8545 -7.5827 2.9429 1 203 180 10
-5.8676 -7.58 2.9434 1 203 180 10
-5.8812 -7.5778 2.9465 1 203 180 10
-5.8937 -7.5742 2.9466 1 203 180 10
-5.907 -7.5722 2.9493 1 203 180 10
-5.9207 -7.5701 2.9517 1 203 180 10
-5.9347 -7.5678 2.9565 1 203 180 10
-5.9472 -7.5642 2.955 1 203 180 10
-5.9616 -7.5629 2.9561 1 203 180 10
-5.9737 -7.5588 2.9617 1 203 180 10
-5.9886 -7.558 2.9647 1 203 180 10
-6.0013 -7.5546 2.9649 1 203 180 10
-6.0141 -7.5511 2.9666 1 203 180 10
-6.0281 -7.5492 2.9685 1 203 180 10
-6.0422 -7.5475 2.9711 1 203 180 10
-6.0552 -7.5443 2.9731 1 203 180 10
-6.0693 -7.5423 2.9747 1 203 180 10
-6.0819 -7.5386 2.9766 1 203 180 10
-6.0957 -7.5363 2.9774 1 203 180 10
-6.1094 -7.5338 2.9804 1 203 180 10
-6.1228 -7.531 2.982 1 203 180 10
-6.1371 -7.5297 2.9841 1 203 180 10
-6.1496 -7.5253 2.9855 1 203 180 10
-6.1636 -7.523 2.987 1 203 180 10
-6.1766 -7.5196 2.9894 1 203 180 10
-6.1907 -7.5176 2.9914 1 203 180 10
-6.2051 -7.5157 2.9931 1 203 180 10
-6.2184 -7.5126 2.995 1 203 180 10
-6.2323 -7.5102 2.9998 1 203 180 10
-6.2459 -7.5073 2.9991 1 203 180 10
-6.2593 -7.5042 3.0006 1 203 180 10
-6.2722 -7.5005 3.002 1 203 180 10
-6.286 -7.4978 3.0074 1 203 180 10
-6.3 -7.4958 3.0094 1 203 180 10
-6.3134 -7.4927 3.0113 1 203 180 10
-6.3274 -7.4902 3.0132 1 203 180 10
-6.3412 -7.4869 3.0117 1 203 180 10
-6.3549 -7.484 3.0171 1 203 180 10
-6.368 -7.4803 3.0189 1 203 180 10
-6.3825 -7.4783 3.0217 1 203 180 10
-6.3963 -7.4755 3.0231 1 203 180 10
-6.4112 -7.4738 3.0253 1 203 180 10
-6.4256 -7.4715 3.0277 1 203 180 10
-6.4389 -7.4681 3.0292 1 203 180 10
-6.4516 -7.4638 3.0311 1 203 180 10
-6.4658 -7.4617 3.0338 1 203 180 10
-6.4812 -7.4601 3.0348 1 203 180 10
-6.4949 -7.4569 3.0379 1 203 180 10
-6.5087 -7.4538 3.0389 1 203 180 10
-6.5227 -7.4509 3.0418 1 203 180 10
-6.5359 -7.447 3.0439 1 203 180 10
-6.5503 -7.4446 3.0446 1 203 180 10
-6.5644 -7.4417 3.0481 1 203 180 10
-6.5777 -7.4379 3.0482 1 203 180 10
-6.5918 -7.4351 3.0549 1 203 180 10
-6.6064 -7.4326 3.0539 1 203 180 10
-6.6207 -7.43 3.0583 1 203 180 10
-6.6359 -7.4281 3.0623 1 203 180 10
-6.6483 -7.4232 3.0589 1 203 180 10
-6.6622 -7.4199 3.0655 1 203 180 10
-7.1219 -7.3544 3.1468 1 203 180 10
-7.1308 -7.3451 3.1452 1 203 180 10
-7.1409 -7.337 3.1449 1 203 180 10
-7.1503 -7.3282 3.1457 1 203 180 10
-7.1609 -7.3206 3.1459 1 203 180 10
-7.1711 -7.3127 3.1471 1 203 180 10
-7.1821 -7.3054 3.1468 1 203 180 10
-4.9795 -7.7556 2.8168 1 203 180 10
-4.9924 -7.7542 2.8221 1 203 180 10
-5.0043 -7.7512 2.8197 1 203 180 10
-5.017 -7.7496 2.824 1 203 180 10
-5.0285 -7.7458 2.8265 1 203 180 10
-5.0411 -7.7441 2.8234 1 203 180 10
-5.0528 -7.7412 2.8281 1 203 180 10
-5.0664 -7.7408 2.8271 1 203 180 10
-5.0788 -7.738 2.831 1 203 180 10
-5.0902 -7.7342 2.8329 1 203 180 10
-5.1025 -7.7316 2.8334 1 203 180 10
-5.1156 -7.7304 2.8353 1 203 180 10
-5.1275 -7.7272 2.8359 1 203 180 10
-5.1396 -7.7243 2.8371 1 203 180 10
-5.1523 -7.7224 2.8401 1 203 180 10
-5.1642 -7.7191 2.84 1 203 180 10
-5.1775 -7.718 2.8417 1 203 180 10
-5.1894 -7.7148 2.8432 1 203 180 10
-5.2023 -7.713 2.8443 1 203 180 10
-5.2149 -7.7107 2.8472 1 203 180 10
-5.2275 -7.7085 2.8475 1 203 180 10
-5.24 -7.706 2.8484 1 203 180 10
-5.2521 -7.7035 2.8504 1 203 180 10
-5.2644 -7.7007 2.8512 1 203 180 10
-5.2765 -7.6978 2.8542 1 203 180 10
-5.2891 -7.6954 2.8538 1 203 180 10
-5.3022 -7.6936 2.8595 1 203 180 10
-5.3152 -7.6918 2.8578 1 203 180 10
-5.3273 -7.6881 2.8615 1 203 180 10
-5.3395 -7.685 2.8613 1 203 180 10
-5.3521 -7.6831 2.8646 1 203 180 10
-5.3651 -7.6807 2.8666 1 203 180 10
-5.3769 -7.6775 2.8646 1 203 180 10
-5.3904 -7.6762 2.8689 1 203 180 10
-5.4026 -7.6731 2.8713 1 203 180 10
-5.4155 -7.6709 2.872 1 203 180 10
-5.4282 -7.6685 2.8743 1 203 180 10
-5.4411 -7.6657 2.8756 1 203 180 10
-5.4667 -7.6609 2.878 1 203 180 10
-5.4791 -7.6579 2.8797 1 203 180 10
-5.4915 -7.6554 2.8816 1 203 180 10
-5.5048 -7.653 2.8831 1 203 180 10
-5.5175 -7.6505 2.8841 1 203 180 10
-5.5303 -7.6479 2.8858 1 203 180 10
-5.5434 -7.6458 2.8872 1 203 180 10
-5.5568 -7.6439 2.8905 1 203 180 10
-5.5684 -7.6398 2.8906 1 203 180 10
-5.5824 -7.6387 2.8919 1 203 180 10
-5.5944 -7.635 2.8938 1 203 180 10
-5.607 -7.6326 2.8984 1 203 180 10
-5.6192 -7.6291 2.8994 1 203 180 10
-5.6331 -7.6278 2.8987 1 203 180 10
-5.6458 -7.6245 2.8992 1 203 180 10
-5.6591 -7.6229 2.9051 1 203 180 10
-5.6721 -7.6205 2.9063 1 203 180 10
-5.6853 -7.6176 2.9086 1 203 180 10
-5.6982 -7.6149 2.91 1 203 180 10
-5.7113 -7.6124 2.9108 1 203 180 10
-5.7246 -7.6102 2.9134 1 203 180 10
-5.7379 -7.608 2.915 1 203 180 10
-5.7509 -7.6054 2.9167 1 203 180 10
-5.7625 -7.6008 2.9174 1 203 180 10
-5.7753 -7.5979 2.9184 1 203 180 10
-5.789 -7.5961 2.9212 1 203 180 10
-5.802 -7.5933 2.9223 1 203 180 10
-5.8143 -7.5896 2.9243 1 203 180 10
-5.828 -7.5877 2.9257 1 203 180 10
-5.8409 -7.5847 2.9271 1 203 180 10
-5.8542 -7.5823 2.9296 1 203 180 10
-5.8676 -7.5799 2.9302 1 203 180 10
-5.8805 -7.5769 2.9329 1 203 180 10
-5.8939 -7.5744 2.9338 1 203 180 10
-5.9073 -7.5725 2.9362 1 203 180 10
-5.9207 -7.57 2.9388 1 203 180 10
-5.9333 -7.5661 2.9426 1 203 180 10
-5.9465 -7.5633 2.9411 1 203 180 10
-5.9606 -7.5617 2.942 1 203 180 10
-5.9741 -7.5593 2.9486 1 203 180 10
-5.9871 -7.5562 2.9507 1 203 180 10
-6.0007 -7.5538 2.9514 1 203 180 10
-6.0147 -7.552 2.9539 1 203 180 10
-6.0276 -7.5486 2.9549 1 203 180 10
-6.042 -7.5472 2.9574 1 203 180 10
-6.0559 -7.5451 2.9602 1 203 180 10
-6.0698 -7.543 2.9613 1 203 180 10
-6.0827 -7.5395 2.9637 1 203 180 10
-6.0959 -7.5365 2.9645 1 203 180 10
-6.1103 -7.5349 2.9672 1 203 180 10
-6.1225 -7.5307 2.9685 1 203 180 10
-6.1363 -7.5288 2.9701 1 203 180 10
-6.1499 -7.5256 2.9723 1 203 180 10
-6.1642 -7.5238 2.9736 1 203 180 10
-6.1777 -7.5209 2.9766 1 203 180 10
-6.1908 -7.5176 2.978 1 203 180 10
-6.2042 -7.5146 2.9792 1 203 180 10
-6.218 -7.5121 2.9814 1 203 180 10
-6.2321 -7.5098 2.9862 1 203 180 10
-6.246 -7.5074 2.9857 1 203 180 10
-6.2595 -7.5045 2.9873 1 203 180 10
-6.2731 -7.5016 2.9886 1 203 180 10
-6.2858 -7.4976 2.9939 1 203 180 10
-6.2992 -7.4949 2.9956 1 203 180 10
-6.3141 -7.4934 2.9985 1 203 180 10
-6.3278 -7.4906 3.0002 1 203 180 10
-6.3418 -7.4876 2.9985 1 203 180 10
-6.3552 -7.4843 3.0038 1 203 180 10
-6.3689 -7.4814 3.0058 1 203 180 10
-6.3829 -7.4788 3.0084 1 203 180 10
-6.3974 -7.4768 3.0101 1 203 180 10
-6.411 -7.4736 3.0117 1 203 180 10
-6.4248 -7.4707 3.0134 1 203 180 10
-6.4387 -7.4679 3.0152 1 203 180 10
-6.4529 -7.4653 3.0182 1 203 180 10
-6.466 -7.4619 3.0203 1 203 180 10
-6.4809 -7.4596 3.0207 1 203 180 10
-6.4945 -7.4564 3.0241 1 203 180 10
-6.5084 -7.4534 3.0252 1 203 180 10
-6.5225 -7.4507 3.0277 1 203 180 10
-6.5366 -7.4479 3.0306 1 203 180 10
-6.5505 -7.4448 3.031 1 203 180 10
-6.5635 -7.4407 3.0341 1 203 180 10
-6.5785 -7.4388 3.035 1 203 180 10
-6.5918 -7.4351 3.0412 1 203 180 10
-6.606 -7.4322 3.0397 1 203 180 10
-6.6198 -7.4289 3.0441 1 203 180 10
-6.6351 -7.4272 3.0482 1 203 180 10
-6.6484 -7.4233 3.0453 1 203 180 10
-6.663 -7.4208 3.0518 1 203 180 10
-7.122 -7.3545 3.1324 1 203 180 10
-7.1304 -7.3446 3.131 1 203 180 10
-7.1409 -7.337 3.1308 1 203 180 10
-7.1511 -7.329 3.132 1 203 180 10
-7.1605 -7.3203 3.1317 1 203 180 10
-7.1722 -7.3137 3.1338 1 203 180 10
-7.183 -7.3064 3.1328 1 203 180 10
-4.9671 -7.7577 2.8042 1 203 180 10
-4.9794 -7.7553 2.804 1 203 180 10
-5.0166 -7.7489 2.8111 1 203 180 10
-5.0292 -7.747 2.8143 1 203 180 10
-5.0421 -7.7456 2.8113 1 203 180 10
-5.0529 -7.7414 2.8155 1 203 180 10
-5.065 -7.7387 2.8133 1 203 180 10
-5.0777 -7.7363 2.8177 1 203 180 10
-5.0906 -7.7346 2.8204 1 203 180 10
-5.1029 -7.7322 2.8209 1 203 180 10
-5.1154 -7.73 2.8224 1 203 180 10
-5.1282 -7.7283 2.8238 1 203 180 10
-5.1388 -7.7232 2.824 1 203 180 10
-5.1532 -7.7238 2.8282 1 203 180 10
-5.1649 -7.7202 2.828 1 203 180 10
-5.1772 -7.7176 2.8288 1 203 180 10
-5.1894 -7.7148 2.8301 1 203 180 10
-5.202 -7.7126 2.8314 1 203 180 10
-5.2148 -7.7106 2.834 1 203 180 10
-5.2273 -7.7083 2.8346 1 203 180 10
-5.2401 -7.7063 2.8357 1 203 180 10
-5.2516 -7.7028 2.8374 1 203 180 10
-5.2642 -7.7005 2.8383 1 203 180 10
-5.2775 -7.6991 2.8416 1 203 180 10
-5.2893 -7.6956 2.8411 1 203 180 10
-5.3023 -7.6938 2.8467 1 203 180 10
-5.315 -7.6915 2.8451 1 203 180 10
-5.3279 -7.6891 2.849 1 203 180 10
-5.3398 -7.6855 2.8486 1 203 180 10
-5.3514 -7.6821 2.8514 1 203 180 10
-5.3655 -7.6813 2.8539 1 203 180 10
-5.3775 -7.6784 2.8521 1 203 180 10
-5.3904 -7.6763 2.8564 1 203 180 10
-5.403 -7.6736 2.8583 1 203 180 10
-5.4157 -7.6711 2.8592 1 203 180 10
-5.4281 -7.6682 2.861 1 203 180 10
-5.441 -7.6656 2.8626 1 203 180 10
-5.4658 -7.6596 2.8649 1 203 180 10
-5.4793 -7.6582 2.8666 1 203 180 10
-5.4918 -7.6558 2.8686 1 203 180 10
-5.5045 -7.6526 2.8703 1 203 180 10
-5.5183 -7.6515 2.8715 1 203 180 10
-5.5306 -7.6484 2.873 1 203 180 10
-5.543 -7.6451 2.874 1 203 180 10
-5.556 -7.6429 2.8768 1 203 180 10
-5.569 -7.6406 2.8779 1 203 180 10
-5.5816 -7.6377 2.8785 1 203 180 10
-5.5946 -7.6353 2.8806 1 203 180 10
-5.607 -7.6326 2.8854 1 203 180 10
-5.6201 -7.6303 2.8872 1 203 180 10
-5.6328 -7.6275 2.8858 1 203 180 10
-5.6464 -7.6252 2.8861 1 203 180 10
-5.6586 -7.6223 2.8919 1 203 180 10
-5.6718 -7.6199 2.893 1 203 180 10
-5.6857 -7.6182 2.8958 1 203 180 10
-5.6976 -7.6141 2.8966 1 203 180 10
-5.7113 -7.6125 2.8974 1 203 180 10
-5.7245 -7.6101 2.9002 1 203 180 10
-5.7372 -7.6071 2.9012 1 203 180 10
-5.7503 -7.6046 2.9033 1 203 180 10
-5.7634 -7.6019 2.9051 1 203 180 10
-5.7768 -7.5999 2.9064 1 203 180 10
-5.7896 -7.5968 2.9084 1 203 180 10
-5.8018 -7.593 2.909 1 203 180 10
-5.8152 -7.5908 2.9116 1 203 180 10
-5.8289 -7.5888 2.913 1 203 180 10
-5.842 -7.5862 2.9145 1 203 180 10
-5.8553 -7.5837 2.917 1 203 180 10
-5.8673 -7.5795 2.9169 1 203 180 10
-5.8808 -7.5773 2.9199 1 203 180 10
-5.8946 -7.5754 2.921 1 203 180 10
-5.907 -7.5721 2.9229 1 203 180 10
-5.9207 -7.5701 2.9256 1 203 180 10
-5.9341 -7.5671 2.9301 1 203 180 10
-5.9471 -7.5641 2.9285 1 203 180 10
-5.9604 -7.5614 2.929 1 203 180 10
-5.9741 -7.5592 2.9354 1 203 180 10
-5.9878 -7.5571 2.9378 1 203 180 10
-6.0007 -7.5538 2.9381 1 203 180 10
-6.0147 -7.5519 2.9403 1 203 180 10
-6.0277 -7.5487 2.9414 1 203 180 10
-6.042 -7.5472 2.9441 1 203 180 10
-6.055 -7.5439 2.9464 1 203 180 10
-6.0691 -7.5421 2.948 1 203 180 10
-6.0824 -7.5392 2.9502 1 203 180 10
-6.0967 -7.5375 2.9512 1 203 180 10
-6.1087 -7.533 2.9531 1 203 180 10
-6.1221 -7.5301 2.955 1 203 180 10
-6.1364 -7.5288 2.9571 1 203 180 10
-6.1496 -7.5252 2.9588 1 203 180 10
-6.1632 -7.5226 2.9602 1 203 180 10
-6.1777 -7.5209 2.9632 1 203 180 10
-6.1905 -7.5173 2.9645 1 203 180 10
-6.2044 -7.5149 2.966 1 203 180 10
-6.2182 -7.5123 2.968 1 203 180 10
-6.2319 -7.5097 2.9728 1 203 180 10
-6.245 -7.5062 2.9718 1 203 180 10
-6.2585 -7.5033 2.9738 1 203 180 10
-6.2733 -7.5019 2.9757 1 203 180 10
-6.2861 -7.4979 2.9806 1 203 180 10
-6.2993 -7.4951 2.9822 1 203 180 10
-6.3144 -7.4938 2.9848 1 203 180 10
-6.3264 -7.489 2.9857 1 203 180 10
-6.3411 -7.4867 2.9847 1 203 180 10
-6.3553 -7.4845 2.9904 1 203 180 10
-6.3687 -7.4812 2.9923 1 203 180 10
-6.3834 -7.4794 2.9951 1 203 180 10
-6.3967 -7.4759 2.9962 1 203 180 10
-6.4106 -7.4731 2.998 1 203 180 10
-6.4247 -7.4705 3.0002 1 203 180 10
-6.4381 -7.4671 3.0017 1 203 180 10
-6.4512 -7.4633 3.0038 1 203 180 10
-6.466 -7.4619 3.0071 1 203 180 10
-6.4803 -7.459 3.0072 1 203 180 10
-6.4935 -7.4552 3.01 1 203 180 10
-6.5083 -7.4533 3.0115 1 203 180 10
-6.5213 -7.4493 3.0139 1 203 180 10
-6.5367 -7.448 3.017 1 203 180 10
-6.5501 -7.4443 3.0172 1 203 180 10
-6.5646 -7.4419 3.0209 1 203 180 10
-6.5781 -7.4383 3.0211 1 203 180 10
-6.592 -7.4353 3.0277 1 203 180 10
-6.6059 -7.4321 3.0263 1 203 180 10
-6.62 -7.4291 3.0306 1 203 180 10
-6.6342 -7.4263 3.0342 1 203 180 10
-6.649 -7.424 3.0319 1 203 180 10
-6.6628 -7.4206 3.038 1 203 180 10
-7.1217 -7.3541 3.1185 1 203 180 10
-7.1313 -7.3455 3.1173 1 203 180 10
-7.1414 -7.3374 3.117 1 203 180 10
-7.1508 -7.3287 3.1181 1 203 180 10
-7.1604 -7.3201 3.1176 1 203 180 10
-7.1714 -7.313 3.1191 1 203 180 10
-7.1828 -7.3062 3.119 1 203 180 10
-4.9794 -7.7553 2.7914 1 203 180 10
-5.0166 -7.7489 2.7984 1 203 180 10
-5.0288 -7.7464 2.8014 1 203 180 10
-5.0404 -7.7429 2.7977 1 203 180 10
-5.0528 -7.7413 2.8028 1 203 180 10
-5.0661 -7.7403 2.8016 1 203 180 10
-5.0777 -7.7363 2.805 1 203 180 10
-5.0903 -7.7343 2.8076 1 203 180 10
-5.1027 -7.732 2.8081 1 203 180 10
-5.1148 -7.7291 2.8094 1 203 180 10
-5.1277 -7.7274 2.8105 1 203 180 10
-5.1403 -7.7254 2.8121 1 203 180 10
-5.1523 -7.7224 2.8146 1 203 180 10
-5.1649 -7.7202 2.8152 1 203 180 10
-5.177 -7.7173 2.8159 1 203 180 10
-5.1891 -7.7144 2.8175 1 203 180 10
-5.2026 -7.7134 2.8192 1 203 180 10
-5.215 -7.7109 2.8217 1 203 180 10
-5.2272 -7.7081 2.8218 1 203 180 10
-5.2394 -7.7052 2.8225 1 203 180 10
-5.2519 -7.7032 2.8247 1 203 180 10
-5.2642 -7.7005 2.8256 1 203 180 10
-5.2767 -7.698 2.8286 1 203 180 10
-5.2889 -7.695 2.8281 1 203 180 10
-5.3015 -7.6927 2.8335 1 203 180 10
-5.3137 -7.6896 2.8316 1 203 180 10
-5.3276 -7.6885 2.836 1 203 180 10
-5.3394 -7.6849 2.8359 1 203 180 10
-5.3516 -7.6823 2.8386 1 203 180 10
-5.3649 -7.6804 2.8408 1 203 180 10
-5.3773 -7.6781 2.8391 1 203 180 10
-5.3895 -7.675 2.8427 1 203 180 10
-5.4033 -7.6741 2.8459 1 203 180 10
-5.4156 -7.671 2.8463 1 203 180 10
-5.4289 -7.6693 2.8485 1 203 180 10
-5.4416 -7.6663 2.85 1 203 180 10
-5.467 -7.6613 2.8523 1 203 180 10
-5.4793 -7.6582 2.854 1 203 180 10
-5.4922 -7.6563 2.8561 1 203 180 10
-5.5049 -7.6531 2.8573 1 203 180 10
-5.5174 -7.6503 2.8582 1 203 180 10
-5.531 -7.6488 2.8602 1 203 180 10
-5.5432 -7.6455 2.8612 1 203 180 10
-5.5556 -7.6424 2.864 1 203 180 10
-5.5681 -7.6394 2.8645 1 203 180 10
-5.5824 -7.6388 2.8662 1 203 180 10
-5.5947 -7.6355 2.868 1 203 180 10
-5.6079 -7.6338 2.8728 1 203 180 10
-5.6197 -7.6297 2.8736 1 203 180 10
-5.6321 -7.6265 2.8722 1 203 180 10
-5.6459 -7.6246 2.8732 1 203 180 10
-5.6583 -7.6218 2.8787 1 203 180 10
-5.6717 -7.6198 2.88 1 203 180 10
-5.6854 -7.6177 2.8826 1 203 180 10
-5.698 -7.6147 2.8838 1 203 180 10
-5.7109 -7.612 2.8845 1 203 180 10
-5.7242 -7.6097 2.887 1 203 180 10
-5.7377 -7.6077 2.8884 1 203 180 10
-5.7505 -7.6048 2.8903 1 203 180 10
-5.7643 -7.6031 2.8921 1 203 180 10
-5.7763 -7.5991 2.8927 1 203 180 10
-5.7889 -7.5959 2.8949 1 203 180 10
-5.8025 -7.5939 2.8962 1 203 180 10
-5.8158 -7.5915 2.8988 1 203 180 10
-5.8287 -7.5885 2.8998 1 203 180 10
-5.8415 -7.5855 2.9011 1 203 180 10
-5.8546 -7.5828 2.9035 1 203 180 10
-5.868 -7.5804 2.9041 1 203 180 10
-5.8813 -7.5779 2.9073 1 203 180 10
-5.894 -7.5746 2.9076 1 203 180 10
-5.9074 -7.5727 2.9099 1 203 180 10
-5.9204 -7.5697 2.9123 1 203 180 10
-5.9344 -7.5674 2.9167 1 203 180 10
-5.9475 -7.5645 2.9151 1 203 180 10
-5.9599 -7.5608 2.9156 1 203 180 10
-5.9741 -7.5593 2.9222 1 203 180 10
-5.9874 -7.5566 2.9244 1 203 180 10
-6.0011 -7.5543 2.9251 1 203 180 10
-6.0151 -7.5524 2.9273 1 203 180 10
-6.0285 -7.5497 2.9288 1 203 180 10
-6.0418 -7.547 2.9307 1 203 180 10
-6.055 -7.5439 2.9332 1 203 180 10
-6.0689 -7.5419 2.9343 1 203 180 10
-6.0823 -7.5391 2.9369 1 203 180 10
-6.0966 -7.5374 2.9382 1 203 180 10
-6.1106 -7.5353 2.9407 1 203 180 10
-6.1224 -7.5306 2.9419 1 203 180 10
-6.1357 -7.528 2.9431 1 203 180 10
-6.1501 -7.5259 2.9457 1 203 180 10
-6.1634 -7.5228 2.9466 1 203 180 10
-6.1778 -7.521 2.9499 1 203 180 10
-6.1911 -7.518 2.9514 1 203 180 10
-6.2049 -7.5154 2.9528 1 203 180 10
-6.2174 -7.5114 2.9543 1 203 180 10
-6.2318 -7.5095 2.9593 1 203 180 10
-6.2443 -7.5054 2.9584 1 203 180 10
-6.2586 -7.5033 2.96 1 203 180 10
-6.2727 -7.5011 2.9616 1 203 180 10
-6.2867 -7.4987 2.9675 1 203 180 10
-6.2986 -7.4942 2.9684 1 203 180 10
-6.3136 -7.4929 2.9713 1 203 180 10
-6.3273 -7.49 2.973 1 203 180 10
-6.3419 -7.4878 2.9717 1 203 180 10
-6.3556 -7.4848 2.977 1 203 180 10
-6.3694 -7.482 2.9794 1 203 180 10
-6.3833 -7.4792 2.9815 1 203 180 10
-6.3969 -7.4761 2.9828 1 203 180 10
-6.4102 -7.4726 2.9843 1 203 180 10
-6.4248 -7.4706 2.9864 1 203 180 10
-6.4377 -7.4667 2.9877 1 203 180 10
-6.4518 -7.464 2.9905 1 203 180 10
-6.4664 -7.4624 2.9934 1 203 180 10
-6.4806 -7.4593 2.9935 1 203 180 10
-6.4946 -7.4565 2.997 1 203 180 10
-6.5089 -7.454 2.9982 1 203 180 10
-6.5219 -7.45 3.0006 1 203 180 10
-6.5359 -7.447 3.0031 1 203 180 10
-6.5504 -7.4446 3.0037 1 203 180 10
-6.5642 -7.4415 3.0071 1 203 180 10
-6.5787 -7.4391 3.0081 1 203 180 10
-6.592 -7.4353 3.0144 1 203 180 10
-6.6062 -7.4325 3.0125 1 203 180 10
-6.6201 -7.4292 3.017 1 203 180 10
-6.6348 -7.4269 3.0208 1 203 180 10
-6.6496 -7.4247 3.0185 1 203 180 10
-6.6624 -7.4202 3.0242 1 203 180 10
-7.1214 -7.3538 3.104 1 203 180 10
-7.1324 -7.3467 3.1037 1 203 180 10
-7.1404 -7.3365 3.1025 1 203 180 10
-7.1508 -7.3287 3.1037 1 203 180 10
-7.1607 -7.3204 3.1037 1 203 180 10
-7.1716 -7.3131 3.1054 1 203 180 10
-7.1827 -7.3061 3.1045 1 203 180 10
-4.9917 -7.7531 2.784 1 203 180 10
-5.0176 -7.7504 2.7863 1 203 180 10
-5.0285 -7.746 2.7886 1 203 180 10
-5.041 -7.7439 2.7853 1 203 180 10
-5.0534 -7.7421 2.7904 1 203 180 10
-5.0653 -7.7391 2.7884 1 203 180 10
-5.0782 -7.737 2.7926 1 203 180 10
-5.0901 -7.7339 2.7947 1 203 180 10
-5.103 -7.7323 2.7955 1 203 180 10
-5.1144 -7.7285 2.7965 1 203 180 10
-5.1274 -7.727 2.7979 1 203 180 10
-5.1394 -7.724 2.7988 1 203 180 10
-5.1517 -7.7215 2.8019 1 203 180 10
-5.1635 -7.7181 2.8017 1 203 180 10
-5.1763 -7.7162 2.8028 1 203 180 10
-5.1887 -7.7138 2.8042 1 203 180 10
-5.2017 -7.7122 2.806 1 203 180 10
-5.2141 -7.7096 2.8081 1 203 180 10
-5.2272 -7.7081 2.809 1 203 180 10
-5.2393 -7.7051 2.8097 1 203 180 10
-5.2516 -7.7028 2.8118 1 203 180 10
-5.2642 -7.7005 2.8128 1 203 180 10
-5.2767 -7.698 2.8156 1 203 180 10
-5.2897 -7.6961 2.8157 1 203 180 10
-5.3016 -7.6928 2.8208 1 203 180 10
-5.3144 -7.6907 2.8192 1 203 180 10
-5.3273 -7.6881 2.823 1 203 180 10
-5.3397 -7.6854 2.8229 1 203 180 10
-5.352 -7.6829 2.826 1 203 180 10
-5.3647 -7.6801 2.8278 1 203 180 10
-5.3781 -7.6792 2.8267 1 203 180 10
-5.3899 -7.6754 2.8304 1 203 180 10
-5.403 -7.6737 2.8325 1 203 180 10
-5.4151 -7.6703 2.8332 1 203 180 10
-5.4282 -7.6684 2.8353 1 203 180 10
-5.4418 -7.6667 2.8372 1 203 180 10
-5.4664 -7.6605 2.8394 1 203 180 10
-5.4797 -7.6587 2.841 1 203 180 10
-5.4915 -7.6554 2.8425 1 203 180 10
-5.5051 -7.6535 2.8448 1 203 180 10
-5.5176 -7.6506 2.8453 1 203 180 10
-5.5305 -7.6481 2.847 1 203 180 10
-5.5432 -7.6455 2.8483 1 203 180 10
-5.5556 -7.6424 2.851 1 203 180 10
-5.5688 -7.6403 2.8519 1 203 180 10
-5.5816 -7.6377 2.8529 1 203 180 10
-5.5948 -7.6356 2.8547 1 203 180 10
-5.6068 -7.6323 2.8593 1 203 180 10
-5.6195 -7.6295 2.8609 1 203 180 10
-5.6326 -7.6272 2.8597 1 203 180 10
-5.6467 -7.6257 2.8603 1 203 180 10
-5.6587 -7.6224 2.8659 1 203 180 10
-5.6709 -7.6188 2.8665 1 203 180 10
-5.6853 -7.6176 2.8695 1 203 180 10
-5.6976 -7.6141 2.8705 1 203 180 10
-5.7112 -7.6123 2.8713 1 203 180 10
-5.7236 -7.609 2.8737 1 203 180 10
-5.7369 -7.6067 2.8749 1 203 180 10
-5.7503 -7.6046 2.8772 1 203 180 10
-5.7636 -7.6023 2.879 1 203 180 10
-5.7768 -7.5998 2.8802 1 203 180 10
-5.7885 -7.5954 2.8816 1 203 180 10
-5.8015 -7.5927 2.8827 1 203 180 10
-5.8165 -7.5924 2.886 1 203 180 10
-5.828 -7.5876 2.8863 1 203 180 10
-5.8416 -7.5856 2.888 1 203 180 10
-5.8552 -7.5836 2.8907 1 203 180 10
-5.8685 -7.581 2.8912 1 203 180 10
-5.8817 -7.5784 2.894 1 203 180 10
-5.8943 -7.575 2.8946 1 203 180 10
-5.9073 -7.5725 2.8967 1 203 180 10
-5.9205 -7.5698 2.8992 1 203 180 10
-5.934 -7.567 2.9033 1 203 180 10
-5.9463 -7.563 2.9017 1 203 180 10
-5.9599 -7.5607 2.9024 1 203 180 10
-5.9737 -7.5587 2.9088 1 203 180 10
-5.9877 -7.5569 2.9113 1 203 180 10
-6.0009 -7.554 2.9117 1 203 180 10
-6.0149 -7.5521 2.9139 1 203 180 10
-6.0287 -7.5499 2.9154 1 203 180 10
-6.0425 -7.5477 2.9181 1 203 180 10
-6.0548 -7.5436 2.9198 1 203 180 10
-6.0686 -7.5414 2.9212 1 203 180 10
-6.0826 -7.5394 2.9237 1 203 180 10
-6.0961 -7.5367 2.9243 1 203 180 10
-6.1095 -7.534 2.9272 1 203 180 10
-6.1225 -7.5307 2.9289 1 203 180 10
-6.1356 -7.5279 2.9301 1 203 180 10
-6.1504 -7.5262 2.9325 1 203 180 10
-6.1643 -7.5239 2.934 1 203 180 10
-6.1773 -7.5204 2.9363 1 203 180 10
-6.1905 -7.5172 2.9378 1 203 180 10
-6.2042 -7.5147 2.9392 1 203 180 10
-6.2189 -7.5132 2.9416 1 203 180 10
-6.2317 -7.5095 2.9459 1 203 180 10
-6.2448 -7.5064 2.945 1 203 180 10
-6.2589 -7.5038 2.9468 1 203 180 10
-6.2722 -7.5005 2.9483 1 203 180 10
-6.2859 -7.4977 2.9537 1 203 180 10
-6.2996 -7.4954 2.9555 1 203 180 10
-6.3133 -7.4926 2.9575 1 203 180 10
-6.3268 -7.4894 2.959 1 203 180 10
-6.3411 -7.4867 2.9578 1 203 180 10
-6.3553 -7.4845 2.9634 1 203 180 10
-6.3691 -7.4816 2.9655 1 203 180 10
-6.3828 -7.4787 2.9678 1 203 180 10
-6.3955 -7.4745 2.9687 1 203 180 10
-6.4099 -7.4723 2.9707 1 203 180 10
-6.4244 -7.4702 2.973 1 203 180 10
-6.439 -7.4681 2.9751 1 203 180 10
-6.4524 -7.4647 2.9773 1 203 180 10
-6.4666 -7.4626 2.9799 1 203 180 10
-6.4804 -7.4591 2.9802 1 203 180 10
-6.4943 -7.4562 2.9833 1 203 180 10
-6.5086 -7.4536 2.9845 1 203 180 10
-6.5209 -7.4488 2.9866 1 203 180 10
-6.5361 -7.4473 2.9896 1 203 180 10
-6.5502 -7.4445 2.9901 1 203 180 10
-6.5642 -7.4415 2.9935 1 203 180 10
-6.5787 -7.439 2.9942 1 203 180 10
-6.5927 -7.436 3.0007 1 203 180 10
-6.6068 -7.4331 2.9995 1 203 180 10
-6.6207 -7.4299 3.0036 1 203 180 10
-6.6347 -7.4268 3.0071 1 203 180 10
-6.6488 -7.4238 3.0045 1 203 180 10
-6.6622 -7.4199 3.0107 1 203 180 10
-7.1226 -7.3551 3.0909 1 203 180 10
-7.1306 -7.3448 3.0892 1 203 180 10
-7.1407 -7.3367 3.0886 1 203 180 10
-7.1504 -7.3283 3.0899 1 203 180 10
-7.1599 -7.3195 3.0893 1 203 180 10
-7.1719 -7.3134 3.0912 1 203 180 10
-7.1816 -7.305 3.0904 1 203 180 10
-4.9921 -7.7537 2.7713 1 203 180 10
-5.017 -7.7496 2.7733 1 203 180 10
-5.0783 -7.7371 2.7799 1 203 180 10
-5.0902 -7.734 2.7821 1 203 180 10
-5.103 -7.7323 2.7828 1 203 180 10
-5.1144 -7.7284 2.7837 1 203 180 10
-5.1273 -7.7268 2.7848 1 203 180 10
-5.1392 -7.7237 2.786 1 203 180 10
-5.1519 -7.7217 2.7889 1 203 180 10
-5.1653 -7.7209 2.7897 1 203 180 10
-5.1776 -7.7182 2.7907 1 203 180 10
-5.1895 -7.7149 2.7922 1 203 180 10
-5.2029 -7.714 2.7939 1 203 180 10
-5.214 -7.7094 2.7956 1 203 180 10
-5.227 -7.7077 2.7961 1 203 180 10
-5.2384 -7.7037 2.7964 1 203 180 10
-5.252 -7.7033 2.7992 1 203 180 10
-5.2645 -7.7009 2.8001 1 203 180 10
-5.2771 -7.6985 2.8033 1 203 180 10
-5.2888 -7.6949 2.8024 1 203 180 10
-5.3013 -7.6923 2.8077 1 203 180 10
-5.3155 -7.6922 2.8069 1 203 180 10
-5.3272 -7.6879 2.8101 1 203 180 10
-5.34 -7.6857 2.8105 1 203 180 10
-5.352 -7.6829 2.8131 1 203 180 10
-5.3649 -7.6804 2.8151 1 203 180 10
-5.3773 -7.678 2.8134 1 203 180 10
-5.3915 -7.6777 2.818 1 203 180 10
-5.4021 -7.6723 2.8195 1 203 180 10
-5.4155 -7.6709 2.8208 1 203 180 10
-5.4283 -7.6685 2.8228 1 203 180 10
-5.4415 -7.6662 2.8242 1 203 180 10
-5.4673 -7.6617 2.8266 1 203 180 10
-5.4793 -7.6581 2.8282 1 203 180 10
-5.4926 -7.6569 2.8305 1 203 180 10
-5.5042 -7.6523 2.8314 1 203 180 10
-5.5176 -7.6505 2.8324 1 203 180 10
-5.5304 -7.6481 2.834 1 203 180 10
-5.5426 -7.6446 2.835 1 203 180 10
-5.5554 -7.6421 2.838 1 203 180 10
-5.5686 -7.64 2.8388 1 203 180 10
-5.5811 -7.637 2.8393 1 203 180 10
-5.5948 -7.6355 2.842 1 203 180 10
-5.6066 -7.632 2.8462 1 203 180 10
-5.6204 -7.6307 2.848 1 203 180 10
-5.6332 -7.628 2.8467 1 203 180 10
-5.6464 -7.6252 2.8474 1 203 180 10
-5.6586 -7.6223 2.8528 1 203 180 10
-5.6713 -7.6192 2.8537 1 203 180 10
-5.6853 -7.6176 2.8565 1 203 180 10
-5.698 -7.6146 2.8577 1 203 180 10
-5.7107 -7.6116 2.8583 1 203 180 10
-5.724 -7.6094 2.8608 1 203 180 10
-5.7376 -7.6075 2.8625 1 203 180 10
-5.7501 -7.6042 2.864 1 203 180 10
-5.764 -7.6027 2.8658 1 203 180 10
-5.7768 -7.5997 2.8668 1 203 180 10
-5.7894 -7.5965 2.8689 1 203 180 10
-5.8023 -7.5936 2.8699 1 203 180 10
-5.8156 -7.5913 2.8725 1 203 180 10
-5.8277 -7.5873 2.8731 1 203 180 10
-5.841 -7.5848 2.8746 1 203 180 10
-5.8546 -7.5827 2.8772 1 203 180 10
-5.868 -7.5803 2.8781 1 203 180 10
-5.8804 -7.5767 2.8802 1 203 180 10
-5.8937 -7.5742 2.8811 1 203 180 10
-5.9073 -7.5725 2.8835 1 203 180 10
-5.9205 -7.5698 2.886 1 203 180 10
-5.9346 -7.5678 2.8904 1 203 180 10
-5.9471 -7.564 2.8886 1 203 180 10
-5.9605 -7.5615 2.8895 1 203 180 10
-5.9734 -7.5583 2.8957 1 203 180 10
-5.9879 -7.5571 2.8982 1 203 180 10
-6.002 -7.5554 2.8991 1 203 180 10
-6.0153 -7.5527 2.9013 1 203 180 10
-6.0278 -7.5489 2.9021 1 203 180 10
-6.042 -7.5472 2.9043 1 203 180 10
-6.0546 -7.5434 2.9065 1 203 180 10
-6.0687 -7.5416 2.908 1 203 180 10
-6.0824 -7.5392 2.9104 1 203 180 10
-6.0961 -7.5367 2.9114 1 203 180 10
-6.1092 -7.5335 2.9138 1 203 180 10
-6.123 -7.5313 2.9155 1 203 180 10
-6.1361 -7.5284 2.9167 1 203 180 10
-6.1499 -7.5256 2.919 1 203 180 10
-6.164 -7.5235 2.9202 1 203 180 10
-6.1777 -7.5209 2.9232 1 203 180 10
-6.191 -7.5179 2.9247 1 203 180 10
-6.2035 -7.5137 2.9254 1 203 180 10
-6.2179 -7.5119 2.9278 1 203 180 10
-6.2314 -7.509 2.9323 1 203 180 10
-6.2444 -7.506 2.9318 1 203 180 10
-6.2585 -7.5032 2.9332 1 203 180 10
-6.2725 -7.5008 2.9347 1 203 180 10
-6.2859 -7.4977 2.9402 1 203 180 10
-6.2999 -7.4957 2.9421 1 203 180 10
-6.3128 -7.492 2.9441 1 203 180 10
-6.3267 -7.4894 2.9459 1 203 180 10
-6.3405 -7.4861 2.9441 1 203 180 10
-6.3549 -7.4839 2.9498 1 203 180 10
-6.3698 -7.4824 2.9527 1 203 180 10
-6.3829 -7.4788 2.9544 1 203 180 10
-6.396 -7.4751 2.9555 1 203 180 10
-6.411 -7.4736 2.9577 1 203 180 10
-6.4237 -7.4694 2.9589 1 203 180 10
-6.4382 -7.4673 2.9612 1 203 180 10
-6.4535 -7.4659 2.9643 1 203 180 10
-6.4662 -7.4622 2.9663 1 203 180 10
-6.481 -7.4598 2.9666 1 203 180 10
-6.4948 -7.4567 2.97 1 203 180 10
-6.5091 -7.4542 2.9712 1 203 180 10
-6.5217 -7.4498 2.9734 1 203 180 10
-6.5365 -7.4477 2.9762 1 203 180 10
-6.5502 -7.4444 2.9765 1 203 180 10
-6.564 -7.4413 2.9799 1 203 180 10
-6.5781 -7.4384 2.9806 1 203 180 10
-6.5927 -7.436 2.9874 1 203 180 10
-6.6057 -7.4319 2.9854 1 203 180 10
-6.6202 -7.4293 2.9897 1 203 180 10
-6.6348 -7.4269 2.9938 1 203 180 10
-6.649 -7.424 2.9909 1 203 180 10
-6.6617 -7.4194 2.9965 1 203 180 10
-7.1211 -7.3536 3.0758 1 203 180 10
-7.1305 -7.3447 3.0749 1 203 180 10
-7.1418 -7.3378 3.075 1 203 180 10
-7.1495 -7.3274 3.0751 1 203 180 10
-7.16 -7.3196 3.0753 1 203 180 10
-7.1707 -7.3122 3.077 1 203 180 10
-7.1819 -7.3053 3.0761 1 203 180 10
-4.9921 -7.7537 2.759 1 203 180 10
-5.0043 -7.7512 2.7562 1 203 180 10
-5.0408 -7.7435 2.7599 1 203 180 10
-5.0529 -7.7413 2.7648 1 203 180 10
-5.0906 -7.7347 2.77 1 203 180 10
-5.1027 -7.7319 2.77 1 203 180 10
-5.1151 -7.7295 2.7714 1 203 180 10
-5.1277 -7.7274 2.7727 1 203 180 10
-5.1399 -7.7248 2.7737 1 203 180 10
-5.1523 -7.7224 2.7768 1 203 180 10
-5.1645 -7.7196 2.7768 1 203 180 10
-5.189 -7.7142 2.7789 1 203 180 10
-5.2026 -7.7134 2.7807 1 203 180 10
-5.2146 -7.7103 2.7829 1 203 180 10
-5.2272 -7.708 2.7835 1 203 180 10
-5.2388 -7.7043 2.7839 1 203 180 10
-5.2515 -7.7026 2.7862 1 203 180 10
-5.2641 -7.7003 2.7871 1 203 180 10
-5.2762 -7.6972 2.7897 1 203 180 10
-5.2901 -7.6968 2.7903 1 203 180 10
-5.3015 -7.6926 2.7951 1 203 180 10
-5.3148 -7.6912 2.7938 1 203 180 10
-5.327 -7.6877 2.7973 1 203 180 10
-5.3392 -7.6847 2.797 1 203 180 10
-5.3517 -7.6825 2.8002 1 203 180 10
-5.3651 -7.6806 2.8023 1 203 180 10
-5.3777 -7.6786 2.8008 1 203 180 10
-5.3897 -7.6753 2.8046 1 203 180 10
-5.4023 -7.6726 2.8064 1 203 180 10
-5.4166 -7.6724 2.8082 1 203 180 10
-5.4283 -7.6686 2.8096 1 203 180 10
-5.4417 -7.6665 2.8114 1 203 180 10
-5.4663 -7.6604 2.8136 1 203 180 10
-5.4796 -7.6585 2.8154 1 203 180 10
-5.492 -7.6561 2.817 1 203 180 10
-5.5051 -7.6534 2.8189 1 203 180 10
-5.5179 -7.6509 2.8196 1 203 180 10
-5.5311 -7.649 2.8215 1 203 180 10
-5.5433 -7.6456 2.8224 1 203 180 10
-5.5558 -7.6426 2.8252 1 203 180 10
-5.5692 -7.6408 2.8262 1 203 180 10
-5.5809 -7.6367 2.8266 1 203 180 10
-5.5944 -7.6351 2.8286 1 203 180 10
