-5.167 -9.2825 1.6601 1 201 174 19
-5.1589 -9.2399 1.6534 1 201 174 19
-5.1503 -9.1972 1.6469 1 201 174 19
-5.1419 -9.1552 1.6402 1 201 174 19
-5.1318 -9.1112 1.6338 1 201 174 19
-5.124 -9.0706 1.628 1 201 174 19
-5.1154 -9.029 1.6207 1 201 174 19
-5.1067 -8.9871 1.6156 1 201 174 19
-5.0986 -8.9468 1.6079 1 201 174 19
-5.0907 -8.9068 1.6025 1 201 174 19
-5.0826 -8.8668 1.5964 1 201 174 19
-5.0745 -8.8268 1.5891 1 201 174 19
-5.0662 -8.7869 1.585 1 201 174 19
-5.0598 -8.7497 1.5772 1 201 174 19
-5.0627 -8.7293 1.576 1 201 174 19
-5.0703 -8.7173 1.5743 1 201 174 19
-5.0631 -8.6803 1.5681 1 201 174 19
-5.0567 -8.6444 1.564 1 201 174 19
-5.0472 -8.6027 1.5564 1 201 174 19
-5.0398 -8.5655 1.5514 1 201 174 19
-5.0343 -8.5315 1.5458 1 201 174 19
-5.0259 -8.4929 1.5396 1 201 174 19
-5.0191 -8.4572 1.5384 1 201 174 19
-5.0115 -8.4207 1.5319 1 201 174 19
-5.0061 -8.3877 1.5246 1 201 174 19
-4.9993 -8.3519 1.518 1 201 174 19
-4.9938 -8.3189 1.5159 1 201 174 19
-4.987 -8.284 1.5119 1 201 174 19
-4.9767 -8.2441 1.5048 1 201 174 19
-4.9708 -8.2109 1.4978 1 201 174 19
-4.9614 -8.1722 1.4931 1 201 174 19
-4.9521 -8.1337 1.4875 1 201 174 19
-4.9463 -8.1013 1.4833 1 201 174 19
-4.9403 -8.0681 1.4781 1 201 174 19
-4.9331 -8.0337 1.4732 1 201 174 19
-4.9241 -7.9964 1.4666 1 201 174 19
-4.9214 -7.9696 1.4625 1 201 174 19
-4.9159 -7.9384 1.4585 1 201 174 19
-4.9074 -7.9025 1.4525 1 201 174 19
-4.9029 -7.8737 1.4489 1 201 174 19
-5.2075 -9.4943 1.6793 1 201 174 19
-5.1989 -9.4505 1.6678 1 201 174 19
-5.1902 -9.4068 1.6651 1 201 174 19
-5.184 -9.3683 1.6597 1 201 174 19
-5.1754 -9.3251 1.6536 1 201 174 19
-5.1668 -9.282 1.6464 1 201 174 19
-5.1587 -9.2396 1.6394 1 201 174 19
-5.1505 -9.1977 1.6338 1 201 174 19
-5.1406 -9.1531 1.6263 1 201 174 19
-5.1313 -9.1102 1.6198 1 201 174 19
-5.124 -9.0706 1.6146 1 201 174 19
-5.1155 -9.029 1.6073 1 201 174 19
-5.106 -8.986 1.6021 1 201 174 19
-5.0989 -8.9473 1.5947 1 201 174 19
-5.0915 -8.9081 1.5895 1 201 174 19
-5.0833 -8.868 1.5838 1 201 174 19
-5.075 -8.8278 1.5762 1 201 174 19
-5.067 -8.7883 1.5722 1 201 174 19
-5.0597 -8.7495 1.5641 1 201 174 19
-5.0638 -8.7312 1.5633 1 201 174 19
-5.0709 -8.7182 1.5615 1 201 174 19
-5.0597 -8.6745 1.5541 1 201 174 19
-5.0538 -8.6394 1.5502 1 201 174 19
-5.0471 -8.6026 1.5432 1 201 174 19
-5.0414 -8.5681 1.5391 1 201 174 19
-5.0346 -8.532 1.5331 1 201 174 19
-5.0245 -8.4904 1.5262 1 201 174 19
-5.0176 -8.4546 1.5253 1 201 174 19
-5.0117 -8.4211 1.5191 1 201 174 19
-5.007 -8.3892 1.5122 1 201 174 19
-5 -8.353 1.506 1 201 174 19
-4.9923 -8.3164 1.503 1 201 174 19
-4.9899 -8.2887 1.5004 1 201 174 19
-4.9754 -8.2418 1.4917 1 201 174 19
-4.9686 -8.2073 1.4844 1 201 174 19
-4.9587 -8.1677 1.4803 1 201 174 19
-4.9545 -8.1377 1.4759 1 201 174 19
-4.947 -8.1024 1.4713 1 201 174 19
-4.9394 -8.0666 1.4653 1 201 174 19
-4.9341 -8.0353 1.4614 1 201 174 19
-4.9256 -7.9989 1.455 1 201 174 19
-4.9227 -7.9717 1.4512 1 201 174 19
-4.9155 -7.9377 1.4464 1 201 174 19
-4.9094 -7.9056 1.4408 1 201 174 19
-4.9035 -7.8746 1.4371 1 201 174 19
-5.2146 -9.5358 1.6683 1 201 174 19
-5.2076 -9.4945 1.6654 1 201 174 19
-5.199 -9.4507 1.654 1 201 174 19
-5.1909 -9.408 1.6514 1 201 174 19
-5.1835 -9.3674 1.6458 1 201 174 19
-5.1749 -9.3242 1.6397 1 201 174 19
-5.1661 -9.2809 1.6325 1 201 174 19
-5.1582 -9.2386 1.6259 1 201 174 19
-5.1486 -9.1942 1.6192 1 201 174 19
-5.1401 -9.1521 1.613 1 201 174 19
-5.1316 -9.1108 1.6068 1 201 174 19
-5.124 -9.0707 1.6012 1 201 174 19
-5.116 -9.0299 1.5941 1 201 174 19
-5.1056 -8.9852 1.5887 1 201 174 19
-5.0995 -8.9484 1.5816 1 201 174 19
-5.091 -8.9073 1.5762 1 201 174 19
-5.0829 -8.8672 1.5702 1 201 174 19
-5.0751 -8.828 1.5631 1 201 174 19
-5.0658 -8.7861 1.5588 1 201 174 19
-5.0594 -8.749 1.5511 1 201 174 19
-5.0613 -8.727 1.5496 1 201 174 19
-5.0702 -8.7171 1.5483 1 201 174 19
-5.0625 -8.6793 1.542 1 201 174 19
-5.0545 -8.6407 1.5376 1 201 174 19
-5.0486 -8.6051 1.5311 1 201 174 19
-5.0413 -8.5679 1.5263 1 201 174 19
-5.0333 -8.5297 1.52 1 201 174 19
-5.0264 -8.4937 1.5144 1 201 174 19
-5.0177 -8.4548 1.5127 1 201 174 19
-5.0121 -8.4217 1.5069 1 201 174 19
-5.0065 -8.3883 1.4995 1 201 174 19
-4.9996 -8.3524 1.493 1 201 174 19
-4.992 -8.3159 1.4904 1 201 174 19
-4.9874 -8.2847 1.4872 1 201 174 19
-4.9764 -8.2436 1.48 1 201 174 19
-4.9664 -8.2037 1.4718 1 201 174 19
-4.9603 -8.1703 1.4681 1 201 174 19
-4.9547 -8.1381 1.4638 1 201 174 19
-4.9478 -8.1037 1.4593 1 201 174 19
-4.9416 -8.0702 1.4541 1 201 174 19
-4.935 -8.0367 1.4495 1 201 174 19
-4.9269 -8.0009 1.4432 1 201 174 19
-4.9216 -7.9698 1.4385 1 201 174 19
-4.9156 -7.9379 1.4344 1 201 174 19
-4.9094 -7.9057 1.4291 1 201 174 19
-4.9039 -7.8753 1.4253 1 201 174 19
-5.2147 -9.5359 1.6544 1 201 174 19
-5.2067 -9.4929 1.6512 1 201 174 19
-5.1988 -9.4503 1.64 1 201 174 19
-5.191 -9.4081 1.6377 1 201 174 19
-5.1837 -9.3678 1.6321 1 201 174 19
-5.175 -9.3244 1.626 1 201 174 19
-5.1655 -9.2798 1.619 1 201 174 19
-5.1572 -9.2368 1.6117 1 201 174 19
-5.1489 -9.1949 1.6061 1 201 174 19
-5.1403 -9.1524 1.5992 1 201 174 19
-5.1326 -9.1125 1.5936 1 201 174 19
-5.1231 -9.0691 1.5875 1 201 174 19
-5.1164 -9.0307 1.5809 1 201 174 19
-5.1055 -8.9851 1.5754 1 201 174 19
-5.0994 -8.9481 1.5684 1 201 174 19
-5.0906 -8.9067 1.5629 1 201 174 19
-5.0835 -8.8682 1.5576 1 201 174 19
-5.0746 -8.827 1.5498 1 201 174 19
-5.0665 -8.7873 1.5459 1 201 174 19
-5.0593 -8.7489 1.538 1 201 174 19
-5.0617 -8.7277 1.5367 1 201 174 19
-5.0674 -8.7123 1.5345 1 201 174 19
-5.0613 -8.6772 1.5288 1 201 174 19
-5.0542 -8.6401 1.5246 1 201 174 19
-5.0482 -8.6044 1.5179 1 201 174 19
-5.0407 -8.567 1.5133 1 201 174 19
-5.0332 -8.5296 1.5072 1 201 174 19
-5.0254 -8.492 1.5011 1 201 174 19
-5.0172 -8.4539 1.4999 1 201 174 19
-5.0119 -8.4214 1.4939 1 201 174 19
-5.0041 -8.3843 1.4863 1 201 174 19
-4.9967 -8.3474 1.4799 1 201 174 19
-4.9893 -8.3113 1.4771 1 201 174 19
-4.9863 -8.2828 1.4744 1 201 174 19
-4.9762 -8.2432 1.4675 1 201 174 19
-4.9668 -8.2043 1.4595 1 201 174 19
-4.9604 -8.1705 1.4562 1 201 174 19
-4.9558 -8.1398 1.4518 1 201 174 19
-4.9488 -8.1055 1.4474 1 201 174 19
-4.9416 -8.0702 1.4419 1 201 174 19
-4.934 -8.0351 1.4371 1 201 174 19
-4.9259 -7.9993 1.4309 1 201 174 19
-4.9182 -7.9644 1.4257 1 201 174 19
-4.9159 -7.9383 1.4225 1 201 174 19
-4.9103 -7.9071 1.4171 1 201 174 19
-4.9038 -7.8751 1.4133 1 201 174 19
-5.215 -9.5365 1.6405 1 201 174 19
-5.2074 -9.4942 1.6375 1 201 174 19
-5.1996 -9.4518 1.6264 1 201 174 19
-5.1905 -9.4073 1.6237 1 201 174 19
-5.1829 -9.3664 1.6181 1 201 174 19
-5.1742 -9.3228 1.612 1 201 174 19
-5.1652 -9.2792 1.6049 1 201 174 19
-5.1565 -9.2356 1.5982 1 201 174 19
-5.1488 -9.1947 1.5922 1 201 174 19
-5.1393 -9.1507 1.5854 1 201 174 19
-5.131 -9.1098 1.5797 1 201 174 19
-5.123 -9.0688 1.5741 1 201 174 19
-5.114 -9.0264 1.5668 1 201 174 19
-5.107 -8.9877 1.5625 1 201 174 19
-5.0996 -8.9484 1.5552 1 201 174 19
-5.0912 -8.9077 1.5499 1 201 174 19
-5.0835 -8.8683 1.5441 1 201 174 19
-5.0748 -8.8275 1.5368 1 201 174 19
-5.0658 -8.7862 1.5327 1 201 174 19
-5.0593 -8.7488 1.525 1 201 174 19
-5.0633 -8.7303 1.5242 1 201 174 19
-5.0679 -8.7131 1.5217 1 201 174 19
-5.0616 -8.6778 1.5159 1 201 174 19
-5.0553 -8.642 1.5121 1 201 174 19
-5.0482 -8.6044 1.5054 1 201 174 19
-5.0414 -8.5681 1.5008 1 201 174 19
-5.0337 -8.5304 1.4946 1 201 174 19
-5.0258 -8.4927 1.4888 1 201 174 19
-5.0174 -8.4542 1.4873 1 201 174 19
-5.013 -8.4233 1.482 1 201 174 19
-5.0028 -8.3821 1.4733 1 201 174 19
-4.9961 -8.3465 1.4669 1 201 174 19
-4.9899 -8.3124 1.4649 1 201 174 19
-4.9828 -8.2769 1.4609 1 201 174 19
-4.9751 -8.2413 1.4548 1 201 174 19
-4.9674 -8.2053 1.4474 1 201 174 19
-4.9625 -8.1739 1.4442 1 201 174 19
-4.957 -8.1418 1.4399 1 201 174 19
-4.9492 -8.1061 1.4353 1 201 174 19
-4.9415 -8.07 1.4297 1 201 174 19
-4.9342 -8.0354 1.425 1 201 174 19
-4.9267 -8.0007 1.419 1 201 174 19
-4.9214 -7.9695 1.4143 1 201 174 19
-4.9162 -7.9389 1.4106 1 201 174 19
-4.9105 -7.9074 1.4055 1 201 174 19
-4.9035 -7.8746 1.4013 1 201 174 19
-5.2154 -9.5373 1.6267 1 201 174 19
-5.2069 -9.4933 1.6234 1 201 174 19
-5.1986 -9.45 1.6123 1 201 174 19
-5.1912 -9.4085 1.6101 1 201 174 19
-5.1836 -9.3676 1.6045 1 201 174 19
-5.1743 -9.323 1.5984 1 201 174 19
-5.165 -9.2789 1.5916 1 201 174 19
-5.1565 -9.2356 1.5843 1 201 174 19
-5.1479 -9.193 1.5787 1 201 174 19
-5.1397 -9.1513 1.572 1 201 174 19
-5.1313 -9.1103 1.5664 1 201 174 19
-5.122 -9.0671 1.5604 1 201 174 19
-5.1143 -9.0269 1.5536 1 201 174 19
-5.1063 -8.9864 1.549 1 201 174 19
-5.099 -8.9474 1.5418 1 201 174 19
-5.0917 -8.9086 1.5368 1 201 174 19
-5.084 -8.8692 1.5315 1 201 174 19
-5.0748 -8.8274 1.5237 1 201 174 19
-5.0649 -8.7847 1.5194 1 201 174 19
-5.0607 -8.7512 1.5125 1 201 174 19
-5.0656 -8.7344 1.5119 1 201 174 19
-5.0679 -8.713 1.5087 1 201 174 19
-5.0609 -8.6766 1.5028 1 201 174 19
-5.0552 -8.6418 1.4992 1 201 174 19
-5.048 -8.604 1.4922 1 201 174 19
-5.042 -8.5691 1.4882 1 201 174 19
-5.0378 -8.5374 1.4831 1 201 174 19
-5.0257 -8.4926 1.4758 1 201 174 19
-5.0161 -8.452 1.4743 1 201 174 19
-5.0083 -8.4153 1.4677 1 201 174 19
-5.0019 -8.3807 1.4605 1 201 174 19
-4.9959 -8.3461 1.4547 1 201 174 19
-4.9887 -8.3104 1.4521 1 201 174 19
-4.9825 -8.2765 1.4484 1 201 174 19
-4.976 -8.2428 1.4427 1 201 174 19
-4.9668 -8.2043 1.4349 1 201 174 19
-4.9616 -8.1724 1.4319 1 201 174 19
-4.9556 -8.1395 1.4273 1 201 174 19
-4.9493 -8.1062 1.4231 1 201 174 19
-4.9404 -8.0682 1.4173 1 201 174 19
-4.9329 -8.0333 1.4125 1 201 174 19
-4.9268 -8.0008 1.407 1 201 174 19
-4.9213 -7.9694 1.4026 1 201 174 19
-4.9184 -7.9423 1.3992 1 201 174 19
-4.9124 -7.9105 1.3941 1 201 174 19
-4.9005 -7.8697 1.3885 1 201 174 19
-5.2909 -9.8816 1.6637 1 201 174 19
-5.2156 -9.5375 1.6127 1 201 174 19
-5.2072 -9.4939 1.6096 1 201 174 19
-5.1986 -9.45 1.5984 1 201 174 19
-5.1921 -9.4101 1.5969 1 201 174 19
-5.1826 -9.3658 1.5905 1 201 174 19
-5.1735 -9.3216 1.5844 1 201 174 19
-5.1642 -9.2775 1.5773 1 201 174 19
-5.1574 -9.2371 1.5713 1 201 174 19
-5.1484 -9.1939 1.565 1 201 174 19
-5.1397 -9.1513 1.5589 1 201 174 19
-5.131 -9.1097 1.5528 1 201 174 19
-5.1215 -9.0662 1.5469 1 201 174 19
-5.1148 -9.0278 1.5404 1 201 174 19
-5.106 -8.9859 1.5357 1 201 174 19
-5.0996 -8.9484 1.5287 1 201 174 19
-5.0922 -8.9093 1.5238 1 201 174 19
-5.0834 -8.8681 1.5178 1 201 174 19
-5.0753 -8.8282 1.5108 1 201 174 19
-5.066 -8.7865 1.5067 1 201 174 19
-5.0613 -8.7523 1.4997 1 201 174 19
-5.0672 -8.7372 1.4995 1 201 174 19
-5.0676 -8.7126 1.4957 1 201 174 19
-5.0615 -8.6776 1.4901 1 201 174 19
-5.0539 -8.6395 1.4859 1 201 174 19
-5.0463 -8.6011 1.4792 1 201 174 19
-5.0404 -8.5663 1.4749 1 201 174 19
-5.033 -8.5293 1.469 1 201 174 19
-5.0245 -8.4905 1.4631 1 201 174 19
-5.0148 -8.4499 1.4613 1 201 174 19
-5.008 -8.4148 1.4553 1 201 174 19
-5.0018 -8.3804 1.4479 1 201 174 19
-4.995 -8.3446 1.4416 1 201 174 19
-4.9859 -8.3057 1.4388 1 201 174 19
-4.9807 -8.2735 1.4355 1 201 174 19
-4.9739 -8.2393 1.4297 1 201 174 19
-4.9678 -8.2058 1.4228 1 201 174 19
-4.9614 -8.1722 1.4196 1 201 174 19
-4.9547 -8.1381 1.4148 1 201 174 19
-4.9474 -8.103 1.4104 1 201 174 19
-4.9418 -8.0706 1.4055 1 201 174 19
-4.9343 -8.0355 1.4008 1 201 174 19
-4.9293 -8.0049 1.3956 1 201 174 19
-4.9221 -7.9707 1.3905 1 201 174 19
-4.9177 -7.9413 1.387 1 201 174 19
-4.9096 -7.9059 1.3813 1 201 174 19
-4.9011 -7.8708 1.3768 1 201 174 19
-5.2912 -9.882 1.6494 1 201 174 19
-5.2155 -9.5374 1.5988 1 201 174 19
-5.2076 -9.4945 1.5958 1 201 174 19
-5.1983 -9.4495 1.5845 1 201 174 19
-5.1909 -9.408 1.5824 1 201 174 19
-5.1823 -9.3653 1.5766 1 201 174 19
-5.1729 -9.3206 1.5706 1 201 174 19
-5.1652 -9.2792 1.5643 1 201 174 19
-5.1557 -9.234 1.5568 1 201 174 19
-5.1475 -9.1922 1.5515 1 201 174 19
-5.1394 -9.1508 1.545 1 201 174 19
-5.1309 -9.1095 1.5394 1 201 174 19
-5.1237 -9.07 1.5341 1 201 174 19
-5.1144 -9.0271 1.527 1 201 174 19
-5.1065 -8.9868 1.5225 1 201 174 19
-5.0988 -8.9471 1.5153 1 201 174 19
-5.0922 -8.9093 1.5106 1 201 174 19
-5.0835 -8.8683 1.5051 1 201 174 19
-5.0759 -8.8293 1.4979 1 201 174 19
-5.0661 -8.7867 1.4937 1 201 174 19
-5.0619 -8.7532 1.4868 1 201 174 19
-5.0678 -8.7382 1.4867 1 201 174 19
-5.0684 -8.7139 1.483 1 201 174 19
-5.0626 -8.6795 1.4775 1 201 174 19
-5.053 -8.638 1.4731 1 201 174 19
-5.0447 -8.5985 1.4659 1 201 174 19
-5.038 -8.5624 1.4615 1 201 174 19
-5.0324 -8.5283 1.4561 1 201 174 19
-5.0239 -8.4894 1.4499 1 201 174 19
-5.0164 -8.4526 1.4491 1 201 174 19
-5.0076 -8.4142 1.4423 1 201 174 19
-5.001 -8.3792 1.4352 1 201 174 19
-4.992 -8.3397 1.4286 1 201 174 19
-4.9863 -8.3064 1.4265 1 201 174 19
-4.9789 -8.2706 1.4226 1 201 174 19
-4.9741 -8.2396 1.4174 1 201 174 19
-4.9667 -8.2041 1.4102 1 201 174 19
-4.9616 -8.1725 1.4074 1 201 174 19
-4.9547 -8.1381 1.4025 1 201 174 19
-4.9469 -8.1022 1.398 1 201 174 19
-4.9424 -8.0715 1.3935 1 201 174 19
-4.9361 -8.0385 1.3892 1 201 174 19
-4.9284 -8.0034 1.3833 1 201 174 19
-4.9227 -7.9717 1.3789 1 201 174 19
-4.9192 -7.9437 1.3754 1 201 174 19
-4.9128 -7.9111 1.3702 1 201 174 19
-4.9018 -7.8719 1.3651 1 201 174 19
-5.2929 -9.8852 1.6355 1 201 174 19
-5.2151 -9.5366 1.5847 1 201 174 19
-5.2077 -9.4948 1.5819 1 201 174 19
-5.1984 -9.4497 1.5707 1 201 174 19
-5.1911 -9.4083 1.5687 1 201 174 19
-5.1832 -9.3668 1.5632 1 201 174 19
-5.1731 -9.3209 1.5569 1 201 174 19
-5.1653 -9.2794 1.5504 1 201 174 19
-5.1556 -9.2339 1.5436 1 201 174 19
-5.1476 -9.1924 1.5377 1 201 174 19
-5.1391 -9.1503 1.5314 1 201 174 19
-5.1318 -9.111 1.5262 1 201 174 19
-5.123 -9.0688 1.5206 1 201 174 19
-5.1146 -9.0273 1.5137 1 201 174 19
-5.1063 -8.9864 1.5092 1 201 174 19
-5.0995 -8.9483 1.5023 1 201 174 19
-5.0911 -8.9075 1.4971 1 201 174 19
-5.0834 -8.8682 1.4916 1 201 174 19
-5.0756 -8.8287 1.4847 1 201 174 19
-5.0656 -8.7858 1.4805 1 201 174 19
-5.0631 -8.7554 1.4742 1 201 174 19
-5.0693 -8.7408 1.4741 1 201 174 19
-5.0684 -8.7139 1.47 1 201 174 19
-5.0603 -8.6755 1.464 1 201 174 19
-5.0528 -8.6378 1.4599 1 201 174 19
-5.0456 -8.5999 1.4534 1 201 174 19
-5.0388 -8.5636 1.4489 1 201 174 19
-5.0317 -8.5271 1.4432 1 201 174 19
-5.0236 -8.489 1.4375 1 201 174 19
-5.0153 -8.4507 1.4362 1 201 174 19
-5.0068 -8.4129 1.4298 1 201 174 19
-4.9978 -8.3738 1.4218 1 201 174 19
-4.9913 -8.3384 1.4156 1 201 174 19
-4.9858 -8.3056 1.4139 1 201 174 19
-4.98 -8.2723 1.4102 1 201 174 19
-4.9736 -8.2388 1.4049 1 201 174 19
-4.9653 -8.2018 1.3975 1 201 174 19
-4.9611 -8.1717 1.395 1 201 174 19
-4.952 -8.1336 1.3896 1 201 174 19
-4.9455 -8.1 1.3855 1 201 174 19
-4.9431 -8.0727 1.3816 1 201 174 19
-4.9378 -8.0412 1.3776 1 201 174 19
-4.9296 -8.0053 1.3716 1 201 174 19
-4.9236 -7.9732 1.3668 1 201 174 19
-4.919 -7.9434 1.3634 1 201 174 19
-4.9095 -7.9057 1.3574 1 201 174 19
-4.9013 -7.871 1.353 1 201 174 19
-5.3004 -9.9293 1.6269 1 201 174 19
-5.2986 -9.8958 1.6229 1 201 174 19
-5.2165 -9.5391 1.5712 1 201 174 19
-5.2081 -9.4956 1.5682 1 201 174 19
-5.1998 -9.4522 1.5573 1 201 174 19
-5.1905 -9.4072 1.5547 1 201 174 19
-5.1828 -9.3661 1.5493 1 201 174 19
-5.173 -9.3207 1.5432 1 201 174 19
-5.165 -9.2788 1.537 1 201 174 19
-5.1556 -9.234 1.5297 1 201 174 19
-5.1474 -9.192 1.5245 1 201 174 19
-5.1383 -9.1488 1.5177 1 201 174 19
-5.1314 -9.1103 1.5127 1 201 174 19
-5.1223 -9.0676 1.507 1 201 174 19
-5.1153 -9.0287 1.5006 1 201 174 19
-5.1067 -8.9871 1.4961 1 201 174 19
-5.0992 -8.9478 1.489 1 201 174 19
-5.0914 -8.9081 1.4841 1 201 174 19
-5.0838 -8.8687 1.4789 1 201 174 19
-5.0756 -8.8287 1.4717 1 201 174 19
-5.0662 -8.7868 1.4677 1 201 174 19
-5.0629 -8.7551 1.4612 1 201 174 19
-5.0703 -8.7425 1.4615 1 201 174 19
-5.0693 -8.7155 1.4574 1 201 174 19
-5.0607 -8.6762 1.4512 1 201 174 19
-5.0534 -8.6387 1.4473 1 201 174 19
-5.0463 -8.6012 1.4408 1 201 174 19
-5.0384 -8.563 1.4361 1 201 174 19
-5.0303 -8.5247 1.4301 1 201 174 19
-5.0235 -8.4888 1.4245 1 201 174 19
-5.0139 -8.4482 1.4232 1 201 174 19
-5.0052 -8.4101 1.4165 1 201 174 19
-5.0012 -8.3795 1.4102 1 201 174 19
-4.9944 -8.3436 1.4043 1 201 174 19
-4.9863 -8.3063 1.4016 1 201 174 19
-4.9815 -8.2748 1.3986 1 201 174 19
-4.9707 -8.234 1.3918 1 201 174 19
-4.9666 -8.2039 1.3856 1 201 174 19
-4.9613 -8.172 1.3828 1 201 174 19
-4.9532 -8.1355 1.3777 1 201 174 19
-4.9479 -8.1038 1.374 1 201 174 19
-4.9429 -8.0722 1.3694 1 201 174 19
-4.9372 -8.0403 1.3653 1 201 174 19
-4.9293 -8.0048 1.3594 1 201 174 19
-4.9237 -7.9734 1.3551 1 201 174 19
-4.9089 -7.9048 1.3453 1 201 174 19
-4.8997 -7.8684 1.3407 1 201 174 19
-5.3016 -9.9315 1.6128 1 201 174 19
-5.303 -9.9042 1.6098 1 201 174 19
-5.2156 -9.5376 1.557 1 201 174 19
-5.2074 -9.4942 1.5541 1 201 174 19
-5.1995 -9.4516 1.5433 1 201 174 19
-5.1914 -9.4089 1.5416 1 201 174 19
-5.1821 -9.3648 1.5354 1 201 174 19
-5.173 -9.3208 1.5296 1 201 174 19
-5.1648 -9.2785 1.523 1 201 174 19
-5.1564 -9.2354 1.5167 1 201 174 19
-5.1473 -9.1918 1.5106 1 201 174 19
-5.1391 -9.1503 1.5045 1 201 174 19
-5.1306 -9.1089 1.499 1 201 174 19
-5.1219 -9.0669 1.4935 1 201 174 19
-5.1138 -9.026 1.4865 1 201 174 19
-5.1077 -8.9889 1.4831 1 201 174 19
-5.0996 -8.9484 1.4758 1 201 174 19
-5.0923 -8.9095 1.4711 1 201 174 19
-5.0831 -8.8676 1.4653 1 201 174 19
-5.0761 -8.8297 1.4588 1 201 174 19
-5.0666 -8.7876 1.4548 1 201 174 19
-5.0624 -8.7541 1.4481 1 201 174 19
-5.0704 -8.7426 1.4485 1 201 174 19
-5.069 -8.7149 1.4443 1 201 174 19
-5.0609 -8.6766 1.4384 1 201 174 19
-5.0536 -8.639 1.4345 1 201 174 19
-5.0458 -8.6002 1.4278 1 201 174 19
-5.0378 -8.562 1.4232 1 201 174 19
-5.03 -8.5241 1.4173 1 201 174 19
-5.0268 -8.4943 1.4131 1 201 174 19
-5.0149 -8.4499 1.4108 1 201 174 19
-5.0098 -8.4179 1.4056 1 201 174 19
-5.0013 -8.3797 1.3977 1 201 174 19
-4.9967 -8.3475 1.3922 1 201 174 19
-4.9894 -8.3115 1.39 1 201 174 19
-4.9819 -8.2754 1.3863 1 201 174 19
-4.9727 -8.2373 1.38 1 201 174 19
-4.9675 -8.2054 1.3735 1 201 174 19
-4.9624 -8.1737 1.3708 1 201 174 19
-4.9544 -8.1374 1.3658 1 201 174 19
-4.9474 -8.1031 1.3617 1 201 174 19
-4.9436 -8.0734 1.3574 1 201 174 19
-4.9378 -8.0413 1.3534 1 201 174 19
-4.9296 -8.0052 1.3474 1 201 174 19
-4.9235 -7.973 1.3428 1 201 174 19
-4.9192 -7.9436 1.3394 1 201 174 19
-4.9076 -7.9027 1.333 1 201 174 19
-4.899 -7.8674 1.3286 1 201 174 19
-5.307 -9.9716 1.6048 1 201 174 19
-5.3021 -9.9323 1.5985 1 201 174 19
-5.3047 -9.9073 1.5959 1 201 174 19
-5.2808 -9.8328 1.5839 1 201 174 19
-5.2155 -9.5373 1.543 1 201 174 19
-5.2074 -9.4941 1.5402 1 201 174 19
-5.1995 -9.4515 1.5295 1 201 174 19
-5.1906 -9.4074 1.5272 1 201 174 19
-5.1823 -9.3652 1.5217 1 201 174 19
-5.1726 -9.3201 1.5158 1 201 174 19
-5.1639 -9.2769 1.5095 1 201 174 19
-5.1559 -9.2345 1.5026 1 201 174 19
-5.1473 -9.1919 1.4974 1 201 174 19
-5.14 -9.1519 1.4913 1 201 174 19
-5.1312 -9.11 1.4858 1 201 174 19
-5.1228 -9.0684 1.4804 1 201 174 19
-5.1148 -9.0277 1.4738 1 201 174 19
-5.1074 -8.9884 1.4698 1 201 174 19
-5.1004 -8.9498 1.4629 1 201 174 19
-5.092 -8.909 1.4579 1 201 174 19
-5.0831 -8.8676 1.4525 1 201 174 19
-5.0753 -8.8282 1.4455 1 201 174 19
-5.0669 -8.788 1.4419 1 201 174 19
-5.0612 -8.7521 1.4348 1 201 174 19
-5.0707 -8.7431 1.4356 1 201 174 19
-5.0688 -8.7146 1.4314 1 201 174 19
-5.0604 -8.6756 1.4253 1 201 174 19
-5.053 -8.6381 1.4218 1 201 174 19
-5.0451 -8.599 1.4149 1 201 174 19
-5.0377 -8.5618 1.4104 1 201 174 19
-5.0309 -8.5257 1.4049 1 201 174 19
-5.0253 -8.4919 1.3997 1 201 174 19
-5.0184 -8.4559 1.3992 1 201 174 19
-5.0098 -8.4179 1.3927 1 201 174 19
-5.002 -8.3807 1.3857 1 201 174 19
-4.9975 -8.3488 1.3802 1 201 174 19
-4.991 -8.3142 1.378 1 201 174 19
-4.9815 -8.2748 1.3738 1 201 174 19
-4.9738 -8.2391 1.368 1 201 174 19
-4.9691 -8.208 1.3617 1 201 174 19
-4.964 -8.1763 1.359 1 201 174 19
-4.9536 -8.1362 1.3533 1 201 174 19
-4.947 -8.1024 1.3494 1 201 174 19
-4.9433 -8.0729 1.3452 1 201 174 19
-4.9368 -8.0397 1.341 1 201 174 19
-4.9302 -8.0063 1.3356 1 201 174 19
-4.9225 -7.9713 1.3308 1 201 174 19
-4.9151 -7.937 1.3264 1 201 174 19
-4.9057 -7.8997 1.3206 1 201 174 19
-4.8987 -7.8669 1.3167 1 201 174 19
-5.3067 -9.9711 1.5906 1 201 174 19
-5.3031 -9.9343 1.5844 1 201 174 19
-5.305 -9.9079 1.5816 1 201 174 19
-5.2855 -9.8416 1.5714 1 201 174 19
-5.2071 -9.4936 1.5262 1 201 174 19
-5.1991 -9.4508 1.5156 1 201 174 19
-5.1899 -9.4061 1.5132 1 201 174 19
-5.1816 -9.364 1.5078 1 201 174 19
-5.1726 -9.3201 1.5021 1 201 174 19
-5.1638 -9.2766 1.4955 1 201 174 19
-5.1549 -9.2327 1.4891 1 201 174 19
-5.1482 -9.1936 1.4839 1 201 174 19
-5.1398 -9.1515 1.4781 1 201 174 19
-5.1312 -9.1099 1.4724 1 201 174 19
-5.123 -9.0688 1.4671 1 201 174 19
-5.1146 -9.0275 1.4605 1 201 174 19
-5.108 -8.9894 1.4567 1 201 174 19
-5.1002 -8.9494 1.4496 1 201 174 19
-5.0913 -8.9079 1.4446 1 201 174 19
-5.083 -8.8674 1.439 1 201 174 19
-5.075 -8.8277 1.4323 1 201 174 19
-5.0672 -8.7885 1.4289 1 201 174 19
-5.0611 -8.7519 1.4218 1 201 174 19
-5.0698 -8.7416 1.4224 1 201 174 19
-5.068 -8.7132 1.4182 1 201 174 19
-5.0608 -8.6764 1.4126 1 201 174 19
-5.0525 -8.6372 1.4088 1 201 174 19
-5.0452 -8.5992 1.4021 1 201 174 19
-5.0441 -8.5726 1.3994 1 201 174 19
-5.0331 -8.5295 1.3928 1 201 174 19
-5.0265 -8.4939 1.3877 1 201 174 19
-5.0187 -8.4564 1.3867 1 201 174 19
-5.0083 -8.4153 1.38 1 201 174 19
-5.0025 -8.3816 1.373 1 201 174 19
-4.9965 -8.3471 1.3672 1 201 174 19
-4.9903 -8.313 1.3654 1 201 174 19
-4.9837 -8.2784 1.362 1 201 174 19
-4.975 -8.2412 1.356 1 201 174 19
-4.969 -8.2079 1.3494 1 201 174 19
-4.9642 -8.1768 1.3468 1 201 174 19
-4.9554 -8.1392 1.3416 1 201 174 19
-4.9469 -8.1022 1.3372 1 201 174 19
-4.9427 -8.072 1.3329 1 201 174 19
-4.934 -8.0351 1.3282 1 201 174 19
-4.9275 -8.0019 1.3228 1 201 174 19
-4.9214 -7.9696 1.3182 1 201 174 19
-4.9147 -7.9364 1.3143 1 201 174 19
-4.91 -7.9065 1.3098 1 201 174 19
-4.8991 -7.8675 1.3049 1 201 174 19
-5.3096 -9.9766 1.5767 1 201 174 19
-5.3074 -9.9423 1.5712 1 201 174 19
-5.3034 -9.9048 1.5667 1 201 174 19
-5.2896 -9.8493 1.5579 1 201 174 19
-5.2449 -9.6783 1.534 1 201 174 19
-5.217 -9.54 1.5156 1 201 174 19
-5.2084 -9.4961 1.5127 1 201 174 19
-5.2092 -9.4692 1.5046 1 201 174 19
-5.1917 -9.4094 1.5 1 201 174 19
-5.1823 -9.3652 1.4943 1 201 174 19
-5.1728 -9.3203 1.4885 1 201 174 19
-5.1643 -9.2776 1.4824 1 201 174 19
-5.1561 -9.2347 1.4756 1 201 174 19
-5.1474 -9.1921 1.4705 1 201 174 19
-5.1391 -9.1501 1.4641 1 201 174 19
-5.1317 -9.1109 1.4592 1 201 174 19
-5.1239 -9.0704 1.4541 1 201 174 19
-5.1155 -9.0291 1.4475 1 201 174 19
-5.1069 -8.9875 1.4431 1 201 174 19
-5.1001 -8.9492 1.4364 1 201 174 19
-5.0917 -8.9085 1.4315 1 201 174 19
-5.0835 -8.8682 1.4264 1 201 174 19
-5.0755 -8.8285 1.4194 1 201 174 19
-5.0661 -8.7867 1.4157 1 201 174 19
-5.0601 -8.7502 1.4086 1 201 174 19
-5.068 -8.7385 1.409 1 201 174 19
-5.0683 -8.7138 1.4054 1 201 174 19
-5.064 -8.6818 1.4006 1 201 174 19
-5.0561 -8.6433 1.3967 1 201 174 19
-5.0474 -8.603 1.3899 1 201 174 19
-5.0429 -8.5707 1.3864 1 201 174 19
-5.0337 -8.5305 1.3803 1 201 174 19
-5.027 -8.4947 1.3749 1 201 174 19
-5.0196 -8.4579 1.3743 1 201 174 19
-5.0118 -8.4212 1.3684 1 201 174 19
-5.0019 -8.3806 1.3604 1 201 174 19
-4.9949 -8.3445 1.3546 1 201 174 19
-4.989 -8.3109 1.3527 1 201 174 19
-4.9853 -8.2811 1.3501 1 201 174 19
-4.9756 -8.242 1.3438 1 201 174 19
-4.9683 -8.2066 1.3369 1 201 174 19
-4.9633 -8.1752 1.3343 1 201 174 19
-4.955 -8.1385 1.3293 1 201 174 19
-4.9498 -8.1071 1.3258 1 201 174 19
-4.9421 -8.071 1.3206 1 201 174 19
-4.9311 -8.0303 1.3153 1 201 174 19
-4.9257 -7.999 1.3103 1 201 174 19
-4.9223 -7.971 1.3067 1 201 174 19
-4.9163 -7.9389 1.3028 1 201 174 19
-4.91 -7.9066 1.2979 1 201 174 19
-4.9035 -7.8745 1.2942 1 201 174 19
-5.3171 -10.021 1.567 1 201 174 19
-5.3095 -9.9764 1.5625 1 201 174 19
-5.3111 -9.9493 1.5579 1 201 174 19
-5.3002 -9.8989 1.5514 1 201 174 19
-5.2911 -9.8521 1.5444 1 201 174 19
-5.2551 -9.7262 1.5274 1 201 174 19
-5.26 -9.7062 1.5243 1 201 174 19
-5.2417 -9.6435 1.5158 1 201 174 19
-5.2351 -9.6025 1.5097 1 201 174 19
-5.2315 -9.5665 1.5058 1 201 174 19
-5.2276 -9.5309 1.5044 1 201 174 19
-5.2224 -9.4931 1.4946 1 201 174 19
-5.2075 -9.4381 1.4907 1 201 174 19
-5.1811 -9.363 1.4802 1 201 174 19
-5.1729 -9.3206 1.4749 1 201 174 19
-5.1641 -9.2771 1.4683 1 201 174 19
-5.1559 -9.2345 1.4623 1 201 174 19
-5.1476 -9.1924 1.4567 1 201 174 19
-5.1399 -9.1516 1.4509 1 201 174 19
-5.1306 -9.109 1.4455 1 201 174 19
-5.1231 -9.0689 1.4405 1 201 174 19
-5.1165 -9.0308 1.4344 1 201 174 19
-5.1078 -8.9891 1.4302 1 201 174 19
-5.1003 -8.9495 1.4232 1 201 174 19
-5.0908 -8.9069 1.4181 1 201 174 19
-5.0823 -8.8662 1.4127 1 201 174 19
-5.0749 -8.8274 1.4062 1 201 174 19
-5.0662 -8.7868 1.4027 1 201 174 19
-5.0588 -8.7479 1.3953 1 201 174 19
-5.0667 -8.7362 1.3957 1 201 174 19
-5.0676 -8.7125 1.3923 1 201 174 19
-5.0645 -8.6827 1.3879 1 201 174 19
-5.0549 -8.6413 1.3839 1 201 174 19
-5.0485 -8.6049 1.3775 1 201 174 19
-5.0429 -8.5706 1.3736 1 201 174 19
-5.0342 -8.5313 1.3677 1 201 174 19
-5.0271 -8.4948 1.3626 1 201 174 19
-5.0198 -8.4583 1.3618 1 201 174 19
-5.0123 -8.4221 1.356 1 201 174 19
-5.002 -8.3808 1.3479 1 201 174 19
-4.9949 -8.3445 1.3418 1 201 174 19
-4.9889 -8.3107 1.3402 1 201 174 19
-4.9866 -8.2832 1.338 1 201 174 19
-4.9748 -8.2408 1.3312 1 201 174 19
-4.9691 -8.208 1.3248 1 201 174 19
-4.9632 -8.1751 1.322 1 201 174 19
-4.9548 -8.1381 1.317 1 201 174 19
-4.9489 -8.1055 1.3134 1 201 174 19
-4.9411 -8.0693 1.3082 1 201 174 19
-4.9326 -8.0328 1.3036 1 201 174 19
-4.927 -8.0011 1.2989 1 201 174 19
-4.9229 -7.972 1.2946 1 201 174 19
-4.9157 -7.9379 1.2909 1 201 174 19
-4.9093 -7.9054 1.2858 1 201 174 19
-4.9042 -7.8757 1.2825 1 201 174 19
-5.32 -10.0265 1.5537 1 201 174 19
-5.3097 -9.9768 1.5478 1 201 174 19
-5.3099 -9.947 1.5431 1 201 174 19
-5.3046 -9.907 1.5383 1 201 174 19
-5.2894 -9.8489 1.5292 1 201 174 19
-5.2801 -9.802 1.524 1 201 174 19
-5.2714 -9.7564 1.518 1 201 174 19
-5.2641 -9.7138 1.5113 1 201 174 19
-5.2579 -9.6732 1.5064 1 201 174 19
-5.2471 -9.6246 1.4991 1 201 174 19
-5.2437 -9.5889 1.4953 1 201 174 19
-5.2326 -9.54 1.4919 1 201 174 19
-5.2234 -9.495 1.481 1 201 174 19
-5.2113 -9.4449 1.478 1 201 174 19
-5.1814 -9.3636 1.4666 1 201 174 19
-5.172 -9.319 1.461 1 201 174 19
-5.1639 -9.2768 1.455 1 201 174 19
-5.1558 -9.2342 1.4487 1 201 174 19
-5.1486 -9.1941 1.4438 1 201 174 19
-5.1395 -9.1509 1.4377 1 201 174 19
-5.1311 -9.1098 1.4322 1 201 174 19
-5.1244 -9.0713 1.4275 1 201 174 19
-5.1153 -9.0286 1.4208 1 201 174 19
-5.1079 -8.9892 1.4173 1 201 174 19
-5.0999 -8.9489 1.41 1 201 174 19
-5.0906 -8.9065 1.4049 1 201 174 19
-5.0822 -8.866 1.3999 1 201 174 19
-5.0741 -8.8261 1.393 1 201 174 19
-5.0662 -8.7868 1.3897 1 201 174 19
-5.0616 -8.7527 1.3831 1 201 174 19
-5.0683 -8.739 1.3832 1 201 174 19
-5.0686 -8.7142 1.3796 1 201 174 19
-5.062 -8.6783 1.3743 1 201 174 19
-5.054 -8.6397 1.3708 1 201 174 19
-5.0465 -8.6014 1.3642 1 201 174 19
-5.0416 -8.5683 1.3609 1 201 174 19
-5.0335 -8.5302 1.3549 1 201 174 19
-5.028 -8.4964 1.3499 1 201 174 19
-5.0198 -8.4582 1.3492 1 201 174 19
-5.0133 -8.4238 1.3437 1 201 174 19
-5.0032 -8.3828 1.336 1 201 174 19
-5.0011 -8.3548 1.3314 1 201 174 19
-4.9917 -8.3159 1.3286 1 201 174 19
-4.9866 -8.2833 1.3257 1 201 174 19
-4.9724 -8.2368 1.3183 1 201 174 19
-4.9685 -8.207 1.3124 1 201 174 19
-4.9615 -8.1722 1.3093 1 201 174 19
-4.9535 -8.136 1.3045 1 201 174 19
-4.9481 -8.1042 1.301 1 201 174 19
-4.9406 -8.0685 1.296 1 201 174 19
-4.9342 -8.0353 1.292 1 201 174 19
-4.9301 -8.006 1.2874 1 201 174 19
-4.9224 -7.9712 1.2827 1 201 174 19
-4.9153 -7.9372 1.2786 1 201 174 19
-4.9079 -7.9031 1.2735 1 201 174 19
-4.9022 -7.8724 1.2701 1 201 174 19
-5.327 -10.0396 1.5408 1 201 174 19
-5.3201 -9.9963 1.5367 1 201 174 19
-5.3126 -9.9521 1.5294 1 201 174 19
-5.3034 -9.9049 1.5236 1 201 174 19
-5.2928 -9.8552 1.5162 1 201 174 19
-5.2818 -9.8052 1.5103 1 201 174 19
-5.2697 -9.7533 1.5033 1 201 174 19
-5.2659 -9.7171 1.4977 1 201 174 19
-5.2582 -9.6738 1.4924 1 201 174 19
-5.2482 -9.6266 1.4854 1 201 174 19
-5.2432 -9.5881 1.4812 1 201 174 19
-5.237 -9.5482 1.4792 1 201 174 19
-5.2225 -9.4934 1.4669 1 201 174 19
-5.2162 -9.4538 1.4656 1 201 174 19
-5.1802 -9.3614 1.4526 1 201 174 19
-5.1727 -9.3202 1.4475 1 201 174 19
-5.1638 -9.2767 1.4411 1 201 174 19
-5.1559 -9.2345 1.4352 1 201 174 19
-5.148 -9.1931 1.4301 1 201 174 19
-5.1394 -9.1508 1.4242 1 201 174 19
-5.1319 -9.1113 1.4191 1 201 174 19
-5.1237 -9.07 1.414 1 201 174 19
-5.1157 -9.0293 1.4076 1 201 174 19
-5.1065 -8.9867 1.4033 1 201 174 19
-5.0994 -8.9481 1.3966 1 201 174 19
-5.0902 -8.9059 1.3917 1 201 174 19
-5.0818 -8.8653 1.3867 1 201 174 19
-5.0743 -8.8265 1.38 1 201 174 19
-5.0651 -8.7848 1.3764 1 201 174 19
-5.0615 -8.7526 1.3701 1 201 174 19
-5.0686 -8.7394 1.3703 1 201 174 19
-5.0701 -8.7168 1.3672 1 201 174 19
-5.0612 -8.6771 1.3612 1 201 174 19
-5.0523 -8.6368 1.3575 1 201 174 19
-5.0469 -8.6021 1.3515 1 201 174 19
-5.0412 -8.5678 1.3477 1 201 174 19
-5.0341 -8.531 1.3423 1 201 174 19
-5.0276 -8.4956 1.3374 1 201 174 19
-5.0204 -8.4593 1.3368 1 201 174 19
-5.0124 -8.4222 1.331 1 201 174 19
-5.0048 -8.3854 1.3236 1 201 174 19
-4.9976 -8.349 1.3177 1 201 174 19
-4.9896 -8.3125 1.3156 1 201 174 19
-4.9818 -8.2753 1.312 1 201 174 19
-4.975 -8.241 1.3066 1 201 174 19
-4.9675 -8.2053 1.2998 1 201 174 19
-4.961 -8.1714 1.297 1 201 174 19
-4.952 -8.1335 1.2919 1 201 174 19
-4.948 -8.104 1.2888 1 201 174 19
-4.9405 -8.0683 1.2839 1 201 174 19
-4.9347 -8.0362 1.28 1 201 174 19
-4.9291 -8.0044 1.2754 1 201 174 19
-4.9225 -7.9712 1.2705 1 201 174 19
-4.9142 -7.9356 1.2667 1 201 174 19
-4.9079 -7.9032 1.2616 1 201 174 19
-4.901 -7.8704 1.2579 1 201 174 19
-5.3336 -10.0827 1.5322 1 201 174 19
-5.329 -10.0434 1.5272 1 201 174 19
-5.3187 -9.9936 1.5214 1 201 174 19
-5.3127 -9.9522 1.515 1 201 174 19
-5.3043 -9.9066 1.5095 1 201 174 19
-5.2941 -9.8577 1.502 1 201 174 19
-5.2829 -9.8073 1.4964 1 201 174 19
-5.2695 -9.7529 1.4891 1 201 174 19
-5.2679 -9.7207 1.4841 1 201 174 19
-5.2592 -9.6757 1.4786 1 201 174 19
-5.2499 -9.6297 1.4719 1 201 174 19
-5.2382 -9.5788 1.4658 1 201 174 19
-5.2329 -9.5407 1.4641 1 201 174 19
-5.2269 -9.5013 1.4542 1 201 174 19
-5.2172 -9.4556 1.452 1 201 174 19
-5.1805 -9.3619 1.439 1 201 174 19
-5.1724 -9.3196 1.4338 1 201 174 19
-5.1637 -9.2764 1.4278 1 201 174 19
-5.1557 -9.2341 1.4216 1 201 174 19
-5.1486 -9.1942 1.4168 1 201 174 19
-5.1399 -9.1516 1.4109 1 201 174 19
-5.1316 -9.1106 1.4056 1 201 174 19
-5.1239 -9.0703 1.4007 1 201 174 19
-5.1151 -9.0282 1.3942 1 201 174 19
-5.1069 -8.9875 1.3905 1 201 174 19
-5.0994 -8.9479 1.3834 1 201 174 19
-5.0907 -8.9068 1.3787 1 201 174 19
-5.0822 -8.866 1.3737 1 201 174 19
-5.074 -8.826 1.3669 1 201 174 19
-5.0652 -8.785 1.3635 1 201 174 19
-5.0587 -8.7477 1.3564 1 201 174 19
-5.0692 -8.7406 1.3576 1 201 174 19
-5.069 -8.715 1.354 1 201 174 19
-5.06 -8.675 1.3481 1 201 174 19
-5.0508 -8.6343 1.3443 1 201 174 19
-5.0436 -8.5964 1.3379 1 201 174 19
-5.0382 -8.5627 1.3345 1 201 174 19
-5.0328 -8.529 1.3293 1 201 174 19
-5.0261 -8.4932 1.3241 1 201 174 19
-5.0181 -8.4554 1.3236 1 201 174 19
-5.0115 -8.4208 1.3182 1 201 174 19
-5.0047 -8.3853 1.3111 1 201 174 19
-4.9965 -8.347 1.3052 1 201 174 19
-4.9894 -8.312 1.3035 1 201 174 19
-4.9826 -8.2765 1.2999 1 201 174 19
-4.9723 -8.2367 1.2936 1 201 174 19
-4.9672 -8.2049 1.2875 1 201 174 19
-4.9579 -8.1663 1.2839 1 201 174 19
-4.9511 -8.1321 1.2795 1 201 174 19
-4.9465 -8.1015 1.2763 1 201 174 19
-4.9414 -8.0703 1.2721 1 201 174 19
-4.9332 -8.0338 1.2676 1 201 174 19
-4.9274 -8.0017 1.2626 1 201 174 19
-4.9229 -7.972 1.2589 1 201 174 19
-4.9126 -7.933 1.254 1 201 174 19
-4.9083 -7.9038 1.2498 1 201 174 19
-4.8995 -7.8681 1.2457 1 201 174 19
-5.3362 -10.0877 1.5184 1 201 174 19
-5.3302 -10.0457 1.5127 1 201 174 19
-5.3148 -9.9863 1.5062 1 201 174 19
-5.3129 -9.9526 1.5007 1 201 174 19
-5.3083 -9.9139 1.4962 1 201 174 19
-5.2953 -9.8599 1.4883 1 201 174 19
-5.2831 -9.8076 1.4818 1 201 174 19
-5.2734 -9.7601 1.476 1 201 174 19
-5.2683 -9.7216 1.4701 1 201 174 19
-5.2599 -9.6769 1.4647 1 201 174 19
-5.2523 -9.6341 1.4585 1 201 174 19
-5.2388 -9.5799 1.452 1 201 174 19
-5.2328 -9.5405 1.4502 1 201 174 19
-5.2294 -9.5058 1.441 1 201 174 19
-5.22 -9.4606 1.439 1 201 174 19
-5.1817 -9.3641 1.4256 1 201 174 19
-5.1711 -9.3173 1.4198 1 201 174 19
-5.163 -9.2751 1.4137 1 201 174 19
-5.1549 -9.2326 1.4079 1 201 174 19
-5.1484 -9.1938 1.4033 1 201 174 19
-5.1395 -9.151 1.3971 1 201 174 19
-5.1326 -9.1124 1.3925 1 201 174 19
-5.1233 -9.0692 1.3872 1 201 174 19
-5.1145 -9.0272 1.3808 1 201 174 19
-5.1071 -8.9878 1.377 1 201 174 19
-5.0975 -8.9447 1.3698 1 201 174 19
-5.0896 -8.9048 1.3653 1 201 174 19
-5.0816 -8.8649 1.3605 1 201 174 19
-5.0731 -8.8244 1.3536 1 201 174 19
-5.0645 -8.7838 1.3503 1 201 174 19
-5.0577 -8.746 1.3432 1 201 174 19
-5.0688 -8.7398 1.3446 1 201 174 19
-5.0692 -8.7152 1.3414 1 201 174 19
-5.0615 -8.6776 1.3356 1 201 174 19
-5.0507 -8.6341 1.3315 1 201 174 19
-5.0478 -8.6037 1.3262 1 201 174 19
-5.0419 -8.569 1.3225 1 201 174 19
-5.0337 -8.5304 1.3169 1 201 174 19
-5.0266 -8.494 1.3119 1 201 174 19
-5.0187 -8.4564 1.3112 1 201 174 19
-5.0116 -8.4209 1.3057 1 201 174 19
-5.0055 -8.3865 1.2988 1 201 174 19
-4.9956 -8.3457 1.2923 1 201 174 19
-4.9864 -8.3071 1.29 1 201 174 19
-4.9811 -8.274 1.2871 1 201 174 19
-4.9714 -8.2352 1.2811 1 201 174 19
-4.9669 -8.2043 1.2751 1 201 174 19
-4.9568 -8.1645 1.2714 1 201 174 19
-4.9506 -8.1313 1.2672 1 201 174 19
-4.9468 -8.1021 1.2642 1 201 174 19
-4.9394 -8.0671 1.2594 1 201 174 19
-4.9328 -8.033 1.2554 1 201 174 19
-4.926 -7.9994 1.2505 1 201 174 19
-4.9207 -7.9684 1.2461 1 201 174 19
-4.9133 -7.934 1.2425 1 201 174 19
-4.9091 -7.9051 1.2381 1 201 174 19
-4.902 -7.8722 1.2345 1 201 174 19
-5.3379 -10.0908 1.5042 1 201 174 19
-5.3301 -10.0455 1.4985 1 201 174 19
-5.3167 -9.9898 1.4919 1 201 174 19
-5.3155 -9.9575 1.487 1 201 174 19
-5.3056 -9.9088 1.4811 1 201 174 19
-5.2946 -9.8586 1.4738 1 201 174 19
-5.2846 -9.8103 1.4683 1 201 174 19
-5.2717 -9.757 1.4613 1 201 174 19
-5.2677 -9.7203 1.4558 1 201 174 19
-5.2592 -9.6757 1.4504 1 201 174 19
-5.2527 -9.6349 1.4446 1 201 174 19
-5.2399 -9.5819 1.4384 1 201 174 19
-5.2339 -9.5425 1.4366 1 201 174 19
-5.23 -9.5071 1.4274 1 201 174 19
-5.2204 -9.4613 1.4253 1 201 174 19
-5.1854 -9.3707 1.4129 1 201 174 19
-5.1714 -9.3178 1.4063 1 201 174 19
-5.1627 -9.2746 1.4004 1 201 174 19
-5.1554 -9.2336 1.3945 1 201 174 19
-5.1479 -9.1929 1.3897 1 201 174 19
-5.1398 -9.1514 1.3841 1 201 174 19
-5.1316 -9.1107 1.3789 1 201 174 19
-5.1235 -9.0696 1.3739 1 201 174 19
-5.1145 -9.0272 1.3675 1 201 174 19
-5.1069 -8.9875 1.3641 1 201 174 19
-5.099 -8.9473 1.357 1 201 174 19
-5.0896 -8.9048 1.3522 1 201 174 19
-5.0802 -8.8625 1.347 1 201 174 19
-5.0724 -8.8231 1.3404 1 201 174 19
-5.0656 -8.7857 1.3376 1 201 174 19
-5.0576 -8.7458 1.3303 1 201 174 19
-5.0657 -8.7345 1.3308 1 201 174 19
-5.0697 -8.7161 1.3284 1 201 174 19
-5.0629 -8.68 1.3232 1 201 174 19
-5.0543 -8.6402 1.3197 1 201 174 19
-5.0475 -8.6031 1.3134 1 201 174 19
-5.0404 -8.5663 1.3097 1 201 174 19
-5.0337 -8.5305 1.3042 1 201 174 19
-5.0271 -8.4949 1.2994 1 201 174 19
-5.0191 -8.457 1.2987 1 201 174 19
-5.0118 -8.4212 1.2932 1 201 174 19
-5.0055 -8.3865 1.2867 1 201 174 19
-4.9959 -8.3461 1.2802 1 201 174 19
-4.9846 -8.3041 1.2775 1 201 174 19
-4.9778 -8.2685 1.2739 1 201 174 19
-4.9709 -8.2343 1.2687 1 201 174 19
-4.9674 -8.2052 1.263 1 201 174 19
-4.9595 -8.1689 1.2599 1 201 174 19
-4.9548 -8.1382 1.2561 1 201 174 19
-4.9485 -8.1048 1.2525 1 201 174 19
-4.9394 -8.067 1.2473 1 201 174 19
-4.9348 -8.0363 1.2439 1 201 174 19
-4.9275 -8.0018 1.2386 1 201 174 19
-4.9214 -7.9696 1.2346 1 201 174 19
-4.9149 -7.9367 1.2307 1 201 174 19
-4.9085 -7.9041 1.226 1 201 174 19
-4.9018 -7.8717 1.2225 1 201 174 19
-5.3401 -10.0951 1.4903 1 201 174 19
-5.3297 -10.0448 1.4835 1 201 174 19
-5.3217 -9.9993 1.4792 1 201 174 19
-5.3153 -9.9571 1.4725 1 201 174 19
-5.3031 -9.9042 1.466 1 201 174 19
-5.2924 -9.8545 1.4589 1 201 174 19
-5.2833 -9.8079 1.4534 1 201 174 19
-5.2744 -9.762 1.4479 1 201 174 19
-5.2673 -9.7195 1.4415 1 201 174 19
-5.2599 -9.6769 1.4365 1 201 174 19
-5.2496 -9.6291 1.4301 1 201 174 19
-5.2439 -9.5893 1.4255 1 201 174 19
-5.2334 -9.5415 1.4225 1 201 174 19
-5.2309 -9.5085 1.4137 1 201 174 19
-5.2192 -9.4591 1.4115 1 201 174 19
-5.1929 -9.3844 1.4013 1 201 174 19
-5.1719 -9.3188 1.3928 1 201 174 19
-5.1627 -9.2746 1.3868 1 201 174 19
-5.1549 -9.2327 1.3809 1 201 174 19
-5.1479 -9.1928 1.3762 1 201 174 19
-5.1394 -9.1508 1.3705 1 201 174 19
-5.1312 -9.11 1.3654 1 201 174 19
-5.1218 -9.0666 1.3602 1 201 174 19
-5.1141 -9.0264 1.3541 1 201 174 19
-5.1067 -8.987 1.3505 1 201 174 19
-5.0985 -8.9465 1.3437 1 201 174 19
-5.0898 -8.9052 1.3391 1 201 174 19
-5.081 -8.8639 1.3342 1 201 174 19
-5.0727 -8.8236 1.3275 1 201 174 19
-5.0646 -8.784 1.3244 1 201 174 19
-5.0563 -8.7436 1.3171 1 201 174 19
-5.064 -8.7315 1.3175 1 201 174 19
-5.0699 -8.7165 1.3158 1 201 174 19
-5.0605 -8.6758 1.3097 1 201 174 19
-5.0521 -8.6364 1.3063 1 201 174 19
-5.0463 -8.6011 1.3003 1 201 174 19
-5.0409 -8.5672 1.2968 1 201 174 19
-5.0332 -8.5296 1.2914 1 201 174 19
-5.0255 -8.4921 1.2864 1 201 174 19
-5.0169 -8.4532 1.2855 1 201 174 19
-5.0133 -8.4237 1.281 1 201 174 19
-5.0044 -8.3848 1.2736 1 201 174 19
-4.9972 -8.3482 1.2681 1 201 174 19
-4.9863 -8.307 1.2652 1 201 174 19
-4.9756 -8.265 1.261 1 201 174 19
-4.9701 -8.233 1.2562 1 201 174 19
-4.9721 -8.213 1.2519 1 201 174 19
-4.9622 -8.1733 1.2483 1 201 174 19
-4.9554 -8.1391 1.2441 1 201 174 19
-4.9469 -8.1021 1.24 1 201 174 19
-4.9415 -8.0705 1.2358 1 201 174 19
-4.9359 -8.038 1.2321 1 201 174 19
-4.9292 -8.0046 1.2273 1 201 174 19
-4.9225 -7.9712 1.2225 1 201 174 19
-4.9153 -7.9373 1.2192 1 201 174 19
-4.9081 -7.9034 1.214 1 201 174 19
-4.9018 -7.8718 1.2107 1 201 174 19
-5.3425 -10.0995 1.4763 1 201 174 19
-5.3298 -10.0449 1.4693 1 201 174 19
-5.3203 -9.9966 1.464 1 201 174 19
-5.3161 -9.9585 1.4583 1 201 174 19
-5.3031 -9.9042 1.4517 1 201 174 19
-5.2872 -9.8447 1.4432 1 201 174 19
-5.2847 -9.8104 1.4399 1 201 174 19
-5.2744 -9.7619 1.4337 1 201 174 19
-5.2674 -9.7197 1.4274 1 201 174 19
-5.2589 -9.6751 1.4222 1 201 174 19
-5.2488 -9.6277 1.4155 1 201 174 19
-5.2428 -9.5873 1.4112 1 201 174 19
-5.2345 -9.5436 1.4089 1 201 174 19
-5.2291 -9.5053 1.3994 1 201 174 19
-5.2187 -9.4582 1.3976 1 201 174 19
-5.2051 -9.4064 1.3908 1 201 174 19
-5.1703 -9.3159 1.3787 1 201 174 19
-5.1632 -9.2755 1.3734 1 201 174 19
-5.1549 -9.2325 1.3673 1 201 174 19
-5.1468 -9.191 1.3625 1 201 174 19
-5.1398 -9.1514 1.3572 1 201 174 19
-5.1304 -9.1085 1.3518 1 201 174 19
-5.1223 -9.0675 1.347 1 201 174 19
-5.1138 -9.026 1.3408 1 201 174 19
-5.1056 -8.9851 1.3373 1 201 174 19
-5.0982 -8.9458 1.3305 1 201 174 19
-5.0895 -8.9047 1.3259 1 201 174 19
-5.0806 -8.8631 1.321 1 201 174 19
-5.0729 -8.8241 1.3145 1 201 174 19
-5.0645 -8.7838 1.3114 1 201 174 19
-5.0571 -8.7449 1.3043 1 201 174 19
-5.0624 -8.7287 1.3042 1 201 174 19
-5.0693 -8.7161 1.3026 1 201 174 19
-5.0598 -8.6745 1.2967 1 201 174 19
-5.0507 -8.6341 1.2932 1 201 174 19
-5.0461 -8.6007 1.2875 1 201 174 19
-5.0396 -8.565 1.2841 1 201 174 19
-5.0328 -8.5288 1.2787 1 201 174 19
-5.0251 -8.4914 1.2737 1 201 174 19
-5.0175 -8.4543 1.2731 1 201 174 19
-5.0124 -8.4222 1.2683 1 201 174 19
-5.0039 -8.3839 1.261 1 201 174 19
-4.9948 -8.3442 1.255 1 201 174 19
-4.9861 -8.3065 1.2531 1 201 174 19
-4.9771 -8.2674 1.2491 1 201 174 19
-4.9735 -8.2386 1.2447 1 201 174 19
-4.9695 -8.2086 1.239 1 201 174 19
-4.9628 -8.1743 1.2363 1 201 174 19
-4.9545 -8.1377 1.2317 1 201 174 19
-4.9481 -8.1042 1.2282 1 201 174 19
-4.9435 -8.0737 1.2242 1 201 174 19
-4.9367 -8.0393 1.2202 1 201 174 19
-4.9295 -8.005 1.2151 1 201 174 19
-4.9224 -7.9712 1.2109 1 201 174 19
-4.916 -7.9384 1.2071 1 201 174 19
-4.907 -7.9017 1.2019 1 201 174 19
-4.9015 -7.8713 1.1991 1 201 174 19
-5.3393 -10.0934 1.4608 1 201 174 19
-5.33 -10.0454 1.4549 1 201 174 19
-5.3153 -9.9873 1.4485 1 201 174 19
-5.3158 -9.9579 1.4438 1 201 174 19
-5.3043 -9.9064 1.438 1 201 174 19
-5.2866 -9.8436 1.4288 1 201 174 19
-5.2858 -9.8126 1.4259 1 201 174 19
-5.2732 -9.7597 1.4192 1 201 174 19
-5.2645 -9.7144 1.4125 1 201 174 19
-5.2589 -9.6751 1.4081 1 201 174 19
-5.2532 -9.6357 1.403 1 201 174 19
-5.2477 -9.5962 1.3986 1 201 174 19
-5.2367 -9.5476 1.3956 1 201 174 19
-5.2292 -9.5054 1.3855 1 201 174 19
-5.2178 -9.4566 1.3832 1 201 174 19
-5.2051 -9.4063 1.3771 1 201 174 19
-5.1703 -9.3158 1.3651 1 201 174 19
-5.1627 -9.2746 1.3597 1 201 174 19
-5.1545 -9.2319 1.3537 1 201 174 19
-5.1476 -9.1924 1.3492 1 201 174 19
-5.1394 -9.1508 1.3434 1 201 174 19
-5.1308 -9.1092 1.3385 1 201 174 19
-5.1221 -9.0672 1.3337 1 201 174 19
-5.1141 -9.0265 1.3276 1 201 174 19
-5.1067 -8.987 1.3241 1 201 174 19
-5.0986 -8.9465 1.3174 1 201 174 19
-5.09 -8.9055 1.313 1 201 174 19
-5.0808 -8.8634 1.308 1 201 174 19
-5.0725 -8.8233 1.3014 1 201 174 19
-5.0641 -8.7831 1.2984 1 201 174 19
-5.057 -8.7447 1.2914 1 201 174 19
-5.0623 -8.7286 1.2916 1 201 174 19
-5.068 -8.7138 1.2897 1 201 174 19
-5.0591 -8.6734 1.2837 1 201 174 19
-5.051 -8.6345 1.2804 1 201 174 19
-5.0455 -8.6003 1.2747 1 201 174 19
-5.0394 -8.5647 1.271 1 201 174 19
-5.0319 -8.5273 1.2658 1 201 174 19
-5.0249 -8.4911 1.261 1 201 174 19
-5.0201 -8.4586 1.2612 1 201 174 19
-5.0108 -8.4195 1.2554 1 201 174 19
-5.0037 -8.3837 1.2488 1 201 174 19
-4.9956 -8.3456 1.2428 1 201 174 19
-4.9883 -8.3102 1.2409 1 201 174 19
-4.9791 -8.2707 1.2372 1 201 174 19
-4.9743 -8.2399 1.2326 1 201 174 19
-4.9703 -8.21 1.2269 1 201 174 19
-4.9643 -8.1768 1.2244 1 201 174 19
-4.9555 -8.1392 1.2197 1 201 174 19
-4.9499 -8.1071 1.2165 1 201 174 19
-4.9443 -8.075 1.2123 1 201 174 19
-4.9371 -8.0401 1.2083 1 201 174 19
-4.9293 -8.0047 1.2033 1 201 174 19
-4.9235 -7.9729 1.1991 1 201 174 19
-4.9143 -7.9357 1.1951 1 201 174 19
-4.9082 -7.9036 1.1903 1 201 174 19
-4.9009 -7.8703 1.1868 1 201 174 19
-5.3425 -10.1302 1.4513 1 201 174 19
-5.3385 -10.092 1.4461 1 201 174 19
-5.3335 -10.052 1.4413 1 201 174 19
-5.3134 -9.9837 1.4335 1 201 174 19
-5.3154 -9.9572 1.4293 1 201 174 19
-5.3032 -9.9043 1.423 1 201 174 19
-5.2905 -9.851 1.4156 1 201 174 19
-5.2874 -9.8156 1.4121 1 201 174 19
-5.2778 -9.7682 1.4063 1 201 174 19
-5.2706 -9.7256 1.4 1 201 174 19
-5.2646 -9.6856 1.3956 1 201 174 19
-5.2574 -9.6435 1.3898 1 201 174 19
-5.2503 -9.601 1.3853 1 201 174 19
-5.2368 -9.5476 1.3817 1 201 174 19
-5.2293 -9.5057 1.3717 1 201 174 19
-5.2158 -9.453 1.3692 1 201 174 19
-5.2061 -9.4082 1.3636 1 201 174 19
-5.1704 -9.316 1.3519 1 201 174 19
-5.1622 -9.2736 1.346 1 201 174 19
-5.1557 -9.234 1.3405 1 201 174 19
-5.1478 -9.1927 1.3358 1 201 174 19
-5.139 -9.1499 1.3302 1 201 174 19
-5.1311 -9.1098 1.3253 1 201 174 19
-5.1224 -9.0677 1.3204 1 201 174 19
-5.1139 -9.0261 1.3143 1 201 174 19
-5.1066 -8.9869 1.3112 1 201 174 19
-5.0973 -8.9443 1.3039 1 201 174 19
-5.0888 -8.9033 1.2996 1 201 174 19
-5.0819 -8.8654 1.2953 1 201 174 19
-5.0724 -8.8231 1.2887 1 201 174 19
-5.0648 -8.7843 1.2856 1 201 174 19
-5.0568 -8.7443 1.2785 1 201 174 19
-5.0623 -8.7286 1.2784 1 201 174 19
-5.0668 -8.7118 1.2762 1 201 174 19
-5.0591 -8.6734 1.2708 1 201 174 19
-5.052 -8.6362 1.2676 1 201 174 19
-5.0446 -8.5988 1.2618 1 201 174 19
-5.038 -8.5622 1.2583 1 201 174 19
-5.0289 -8.5223 1.2524 1 201 174 19
-5.0234 -8.4886 1.2481 1 201 174 19
-5.0172 -8.4539 1.248 1 201 174 19
-5.0083 -8.4153 1.2422 1 201 174 19
-5.0017 -8.3802 1.2355 1 201 174 19
-4.9972 -8.3483 1.2308 1 201 174 19
-4.9905 -8.3139 1.2294 1 201 174 19
-4.9805 -8.2731 1.2253 1 201 174 19
-4.9749 -8.2409 1.2205 1 201 174 19
-4.9708 -8.2108 1.2148 1 201 174 19
-4.9651 -8.1782 1.2124 1 201 174 19
-4.9573 -8.1422 1.208 1 201 174 19
-4.9499 -8.1071 1.2043 1 201 174 19
-4.9445 -8.0754 1.2002 1 201 174 19
-4.9384 -8.0421 1.1965 1 201 174 19
-4.9303 -8.0064 1.1913 1 201 174 19
-4.9225 -7.9712 1.1869 1 201 174 19
-4.9152 -7.937 1.1831 1 201 174 19
-4.9065 -7.9008 1.178 1 201 174 19
-4.8997 -7.8684 1.1749 1 201 174 19
-5.3423 -10.1299 1.4367 1 201 174 19
-5.3383 -10.0915 1.4314 1 201 174 19
-5.3348 -10.0543 1.4271 1 201 174 19
-5.3188 -9.9938 1.4205 1 201 174 19
-5.3158 -9.958 1.415 1 201 174 19
-5.3019 -9.902 1.4087 1 201 174 19
-5.2934 -9.8563 1.402 1 201 174 19
-5.2905 -9.8213 1.3984 1 201 174 19
-5.2834 -9.7786 1.3936 1 201 174 19
-5.2752 -9.7342 1.3871 1 201 174 19
-5.2677 -9.6912 1.3823 1 201 174 19
-5.258 -9.6445 1.3762 1 201 174 19
-5.2512 -9.6026 1.3716 1 201 174 19
-5.2372 -9.5484 1.3679 1 201 174 19
-5.2297 -9.5064 1.358 1 201 174 19
-5.2175 -9.4561 1.3559 1 201 174 19
-5.2078 -9.4112 1.3503 1 201 174 19
-5.1701 -9.3154 1.3379 1 201 174 19
-5.1614 -9.2723 1.3323 1 201 174 19
-5.1542 -9.2313 1.3267 1 201 174 19
-5.1478 -9.1928 1.3224 1 201 174 19
-5.1393 -9.1506 1.3169 1 201 174 19
-5.1309 -9.1094 1.3122 1 201 174 19
-5.1221 -9.0671 1.3071 1 201 174 19
-5.114 -9.0263 1.3011 1 201 174 19
-5.1059 -8.9856 1.2975 1 201 174 19
-5.0981 -8.9457 1.291 1 201 174 19
-5.0898 -8.9051 1.287 1 201 174 19
-5.0811 -8.864 1.282 1 201 174 19
-5.0732 -8.8245 1.2759 1 201 174 19
-5.0648 -8.7844 1.2727 1 201 174 19
-5.0568 -8.7443 1.2656 1 201 174 19
-5.0645 -8.7324 1.2664 1 201 174 19
-5.0645 -8.7077 1.263 1 201 174 19
-5.057 -8.6698 1.2575 1 201 174 19
-5.0522 -8.6366 1.2552 1 201 174 19
-5.0468 -8.6024 1.2496 1 201 174 19
-5.0336 -8.5548 1.2442 1 201 174 19
-5.0288 -8.522 1.2397 1 201 174 19
-5.0224 -8.4868 1.2352 1 201 174 19
-5.0165 -8.4525 1.2352 1 201 174 19
-5.0083 -8.4153 1.2297 1 201 174 19
-5.0024 -8.3815 1.2235 1 201 174 19
-4.9977 -8.349 1.2185 1 201 174 19
-4.991 -8.3147 1.2169 1 201 174 19
-4.9814 -8.2746 1.2132 1 201 174 19
-4.9753 -8.2416 1.2083 1 201 174 19
-4.9709 -8.2109 1.2026 1 201 174 19
-4.967 -8.1812 1.2007 1 201 174 19
-4.9571 -8.1419 1.1958 1 201 174 19
-4.9498 -8.1069 1.1922 1 201 174 19
-4.9446 -8.0755 1.1882 1 201 174 19
-4.9387 -8.0426 1.1846 1 201 174 19
-4.9294 -8.005 1.1793 1 201 174 19
-4.9246 -7.9747 1.1755 1 201 174 19
-4.9138 -7.9349 1.1711 1 201 174 19
-4.9065 -7.9009 1.1661 1 201 174 19
-4.9 -7.8688 1.1629 1 201 174 19
-5.345 -10.1349 1.4227 1 201 174 19
-5.3402 -10.0951 1.4174 1 201 174 19
-5.3349 -10.0545 1.4126 1 201 174 19
-5.3209 -9.9978 1.4067 1 201 174 19
-5.3165 -9.9593 1.4007 1 201 174 19
-5.3035 -9.905 1.3944 1 201 174 19
-5.2935 -9.8564 1.3878 1 201 174 19
-5.293 -9.8258 1.3851 1 201 174 19
-5.2855 -9.7825 1.38 1 201 174 19
-5.2776 -9.7387 1.3736 1 201 174 19
-5.2677 -9.6913 1.3682 1 201 174 19
-5.2581 -9.6446 1.3619 1 201 174 19
-5.2509 -9.602 1.3575 1 201 174 19
-5.2374 -9.5488 1.3541 1 201 174 19
-5.2283 -9.5039 1.3438 1 201 174 19
-5.2166 -9.4544 1.3418 1 201 174 19
-5.208 -9.4116 1.337 1 201 174 19
-5.1699 -9.315 1.3242 1 201 174 19
-5.1619 -9.2732 1.3188 1 201 174 19
-5.1547 -9.2323 1.3133 1 201 174 19
-5.148 -9.193 1.309 1 201 174 19
-5.1396 -9.1511 1.3036 1 201 174 19
-5.1306 -9.1088 1.2985 1 201 174 19
-5.1224 -9.0677 1.2942 1 201 174 19
-5.1145 -9.0271 1.288 1 201 174 19
-5.1059 -8.9856 1.2846 1 201 174 19
-5.0976 -8.9448 1.2781 1 201 174 19
-5.0911 -8.9073 1.2743 1 201 174 19
-5.081 -8.8639 1.269 1 201 174 19
-5.0734 -8.8248 1.263 1 201 174 19
-5.0647 -8.7841 1.2597 1 201 174 19
-5.0567 -8.7443 1.2527 1 201 174 19
-5.0639 -8.7314 1.253 1 201 174 19
-5.063 -8.7052 1.2495 1 201 174 19
-5.0596 -8.6743 1.2453 1 201 174 19
-5.0479 -8.6292 1.2414 1 201 174 19
-5.0423 -8.5949 1.2358 1 201 174 19
-5.0333 -8.5543 1.2318 1 201 174 19
-5.028 -8.5208 1.2273 1 201 174 19
-5.0228 -8.4876 1.2228 1 201 174 19
-5.0174 -8.4541 1.2229 1 201 174 19
-5.0094 -8.4172 1.2175 1 201 174 19
-5.0021 -8.3809 1.2107 1 201 174 19
-4.9977 -8.3491 1.2061 1 201 174 19
-4.991 -8.3148 1.2048 1 201 174 19
-4.9817 -8.275 1.2012 1 201 174 19
-4.9747 -8.2405 1.1958 1 201 174 19
-4.9715 -8.2119 1.1905 1 201 174 19
-4.9671 -8.1815 1.1885 1 201 174 19
-4.9572 -8.142 1.1837 1 201 174 19
-4.9501 -8.1075 1.1804 1 201 174 19
-4.9438 -8.0742 1.1759 1 201 174 19
-4.936 -8.0382 1.1719 1 201 174 19
-4.9279 -8.0024 1.1667 1 201 174 19
-4.9218 -7.9702 1.1629 1 201 174 19
-4.9136 -7.9345 1.1589 1 201 174 19
-4.9081 -7.9035 1.1546 1 201 174 19
-4.9011 -7.8706 1.1516 1 201 174 19
-5.3464 -10.1377 1.4089 1 201 174 19
-5.3427 -10.0999 1.4035 1 201 174 19
-5.332 -10.049 1.3973 1 201 174 19
-5.3252 -10.0058 1.3933 1 201 174 19
-5.314 -9.9547 1.3857 1 201 174 19
-5.3061 -9.9097 1.3811 1 201 174 19
-5.2963 -9.8616 1.3742 1 201 174 19
