-5.7305 -12.1321 5.2375 1 8 70 231
-5.7159 -12.062 5.2108 1 8 70 231
-5.6997 -11.9888 5.1813 1 8 70 231
-5.6889 -11.9273 5.1545 1 8 70 231
-5.6748 -11.8594 5.1316 1 8 70 231
-5.6621 -11.7948 5.1067 1 8 70 231
-5.6521 -11.7352 5.084 1 8 70 231
-5.6364 -11.665 5.0567 1 8 70 231
-5.6252 -11.6046 5.035 1 8 70 231
-5.6123 -11.5419 5.008 1 8 70 231
-5.6007 -11.4805 4.9854 1 8 70 231
-5.588 -11.418 4.9618 1 8 70 231
-5.5746 -11.3545 4.9363 1 8 70 231
-5.562 -11.2928 4.9125 1 8 70 231
-5.5504 -11.2337 4.8893 1 8 70 231
-5.5401 -11.1775 4.8684 1 8 70 231
-5.5286 -11.1201 4.8468 1 8 70 231
-5.5196 -11.0669 4.8248 1 8 70 231
-5.5099 -11.0128 4.8047 1 8 70 231
-5.4969 -10.9525 4.7814 1 8 70 231
-5.4836 -10.8918 4.7579 1 8 70 231
-5.4739 -10.8385 4.7376 1 8 70 231
-5.4641 -10.7846 4.7154 1 8 70 231
-5.4524 -10.7281 4.6989 1 8 70 231
-5.4402 -10.6709 4.6768 1 8 70 231
-5.428 -10.6139 4.6553 1 8 70 231
-5.4154 -10.5565 4.6327 1 8 70 231
-5.4052 -10.5048 4.6069 1 8 70 231
-5.3953 -10.4525 4.5921 1 8 70 231
-5.3872 -10.4047 4.5736 1 8 70 231
-5.3768 -10.3535 4.5545 1 8 70 231
-5.3658 -10.2999 4.5335 1 8 70 231
-5.3564 -10.2513 4.5154 1 8 70 231
-5.3481 -10.2041 4.4968 1 8 70 231
-5.3375 -10.1529 4.4763 1 8 70 231
-5.3287 -10.1044 4.4592 1 8 70 231
-5.3177 -10.0529 4.4382 1 8 70 231
-5.3105 -10.0089 4.4217 1 8 70 231
-5.3008 -9.9603 4.404 1 8 70 231
-5.2903 -9.9105 4.3837 1 8 70 231
-5.281 -9.8632 4.3661 1 8 70 231
-5.2725 -9.8177 4.3477 1 8 70 231
-5.7304 -12.1318 5.218 1 8 70 231
-5.7154 -12.0609 5.1911 1 8 70 231
-5.6997 -11.9888 5.1622 1 8 70 231
-5.6884 -11.9263 5.135 1 8 70 231
-5.6752 -11.8602 5.1129 1 8 70 231
-5.6614 -11.7933 5.0871 1 8 70 231
-5.6512 -11.7333 5.0649 1 8 70 231
-5.6372 -11.6666 5.0382 1 8 70 231
-5.6246 -11.6034 5.0158 1 8 70 231
-5.612 -11.5413 4.9892 1 8 70 231
-5.6004 -11.4798 4.9661 1 8 70 231
-5.5867 -11.4154 4.9422 1 8 70 231
-5.5732 -11.3517 4.9168 1 8 70 231
-5.5624 -11.2938 4.8952 1 8 70 231
-5.55 -11.2328 4.8713 1 8 70 231
-5.5395 -11.1762 4.8502 1 8 70 231
-5.5297 -11.1222 4.8297 1 8 70 231
-5.5198 -11.0673 4.8071 1 8 70 231
-5.5089 -11.0109 4.786 1 8 70 231
-5.4966 -10.9519 4.7634 1 8 70 231
-5.4856 -10.8957 4.742 1 8 70 231
-5.475 -10.8407 4.7215 1 8 70 231
-5.4625 -10.7815 4.6966 1 8 70 231
-5.4516 -10.7264 4.6808 1 8 70 231
-5.4398 -10.6701 4.6592 1 8 70 231
-5.4277 -10.6134 4.6382 1 8 70 231
-5.4155 -10.5567 4.6156 1 8 70 231
-5.4064 -10.5072 4.5909 1 8 70 231
-5.397 -10.4559 4.5766 1 8 70 231
-5.3877 -10.4057 4.5571 1 8 70 231
-5.3769 -10.3538 4.5377 1 8 70 231
-5.3674 -10.303 4.5185 1 8 70 231
-5.357 -10.2523 4.4987 1 8 70 231
-5.3475 -10.2029 4.48 1 8 70 231
-5.3367 -10.1514 4.4586 1 8 70 231
-5.3276 -10.1023 4.4417 1 8 70 231
-5.3185 -10.0545 4.4224 1 8 70 231
-5.3108 -10.0095 4.4055 1 8 70 231
-5.2995 -9.9578 4.387 1 8 70 231
-5.2893 -9.9087 4.3666 1 8 70 231
-5.2803 -9.8619 4.3497 1 8 70 231
-5.2724 -9.8176 4.3315 1 8 70 231
-5.2634 -9.772 4.3154 1 8 70 231
-5.7312 -12.1335 5.1993 1 8 70 231
-5.7155 -12.0611 5.1719 1 8 70 231
-5.6996 -11.9886 5.1429 1 8 70 231
-5.6884 -11.9263 5.1159 1 8 70 231
-5.6756 -11.861 5.0943 1 8 70 231
-5.6615 -11.7934 5.0683 1 8 70 231
-5.6502 -11.7312 5.0451 1 8 70 231
-5.6367 -11.6657 5.0191 1 8 70 231
-5.6241 -11.6024 4.9967 1 8 70 231
-5.6125 -11.5423 4.971 1 8 70 231
-5.5997 -11.4784 4.9475 1 8 70 231
-5.5861 -11.414 4.9233 1 8 70 231
-5.5733 -11.3518 4.899 1 8 70 231
-5.562 -11.2928 4.8761 1 8 70 231
-5.5502 -11.2332 4.8529 1 8 70 231
-5.5405 -11.1783 4.8331 1 8 70 231
-5.5288 -11.1203 4.8114 1 8 70 231
-5.5183 -11.0643 4.7879 1 8 70 231
-5.5089 -11.0109 4.7683 1 8 70 231
-5.4961 -10.9508 4.7452 1 8 70 231
-5.4855 -10.8955 4.7242 1 8 70 231
-5.4748 -10.8403 4.7037 1 8 70 231
-5.4624 -10.7813 4.679 1 8 70 231
-5.4511 -10.7255 4.663 1 8 70 231
-5.4391 -10.6686 4.6412 1 8 70 231
-5.426 -10.6101 4.6191 1 8 70 231
-5.4159 -10.5574 4.5987 1 8 70 231
-5.4065 -10.5075 4.5743 1 8 70 231
-5.3976 -10.4571 4.5605 1 8 70 231
-5.3887 -10.4077 4.5411 1 8 70 231
-5.3778 -10.3555 4.5212 1 8 70 231
-5.3673 -10.3028 4.5016 1 8 70 231
-5.3563 -10.2509 4.4814 1 8 70 231
-5.3461 -10.2003 4.4618 1 8 70 231
-5.3366 -10.1511 4.4424 1 8 70 231
-5.3272 -10.1015 4.4249 1 8 70 231
-5.3177 -10.053 4.4053 1 8 70 231
-5.3104 -10.0087 4.3888 1 8 70 231
-5.3004 -9.9595 4.371 1 8 70 231
-5.2903 -9.9106 4.3512 1 8 70 231
-5.2797 -9.8609 4.3327 1 8 70 231
-5.2705 -9.814 4.3138 1 8 70 231
-5.2635 -9.7722 4.2995 1 8 70 231
-5.7302 -12.1313 5.179 1 8 70 231
-5.7156 -12.0612 5.1526 1 8 70 231
-5.6993 -11.9879 5.1234 1 8 70 231
-5.6887 -11.927 5.0971 1 8 70 231
-5.6748 -11.8593 5.0745 1 8 70 231
-5.6609 -11.7922 5.0489 1 8 70 231
-5.6485 -11.7276 5.0248 1 8 70 231
-5.6361 -11.6645 4.9998 1 8 70 231
-5.6239 -11.602 4.9779 1 8 70 231
-5.6127 -11.5428 4.9527 1 8 70 231
-5.599 -11.4769 4.928 1 8 70 231
-5.5869 -11.4157 4.9056 1 8 70 231
-5.5737 -11.3526 4.8806 1 8 70 231
-5.5617 -11.2923 4.8581 1 8 70 231
-5.5503 -11.2335 4.8354 1 8 70 231
-5.5408 -11.1789 4.8153 1 8 70 231
-5.5294 -11.1215 4.7935 1 8 70 231
-5.5169 -11.0615 4.7689 1 8 70 231
-5.5087 -11.0104 4.7503 1 8 70 231
-5.4975 -10.9536 4.7287 1 8 70 231
-5.4857 -10.8959 4.7068 1 8 70 231
-5.4736 -10.8379 4.6851 1 8 70 231
-5.4628 -10.7819 4.6618 1 8 70 231
-5.451 -10.7253 4.6455 1 8 70 231
-5.4383 -10.667 4.6232 1 8 70 231
-5.4273 -10.6125 4.603 1 8 70 231
-5.4161 -10.5579 4.5818 1 8 70 231
-5.4069 -10.5083 4.5572 1 8 70 231
-5.3971 -10.456 4.5426 1 8 70 231
-5.3893 -10.4088 4.5246 1 8 70 231
-5.3779 -10.3558 4.5049 1 8 70 231
-5.3672 -10.3025 4.4843 1 8 70 231
-5.356 -10.2504 4.4644 1 8 70 231
-5.3467 -10.2013 4.446 1 8 70 231
-5.3364 -10.1507 4.4256 1 8 70 231
-5.3272 -10.1016 4.4084 1 8 70 231
-5.3184 -10.0541 4.3894 1 8 70 231
-5.3096 -10.0072 4.3718 1 8 70 231
-5.3002 -9.9592 4.3546 1 8 70 231
-5.2894 -9.9089 4.3347 1 8 70 231
-5.2804 -9.8621 4.3175 1 8 70 231
-5.2712 -9.8152 4.2987 1 8 70 231
-5.7306 -12.1323 5.1601 1 8 70 231
-5.7157 -12.0614 5.1335 1 8 70 231
-5.6986 -11.9863 5.1036 1 8 70 231
-5.6877 -11.9247 5.0771 1 8 70 231
-5.6748 -11.8594 5.0556 1 8 70 231
-5.6618 -11.7942 5.0308 1 8 70 231
-5.6486 -11.7278 5.0061 1 8 70 231
-5.6361 -11.6643 4.9816 1 8 70 231
-5.6238 -11.6017 4.9592 1 8 70 231
-5.6122 -11.5418 4.9338 1 8 70 231
-5.6004 -11.4798 4.9108 1 8 70 231
-5.5867 -11.4154 4.8872 1 8 70 231
-5.5737 -11.3526 4.8628 1 8 70 231
-5.5626 -11.2941 4.8403 1 8 70 231
-5.5505 -11.2339 4.817 1 8 70 231
-5.5406 -11.1784 4.7971 1 8 70 231
-5.5293 -11.1214 4.776 1 8 70 231
-5.517 -11.0617 4.7516 1 8 70 231
-5.5094 -11.0118 4.7331 1 8 70 231
-5.4967 -10.952 4.7104 1 8 70 231
-5.4858 -10.8961 4.6893 1 8 70 231
-5.4747 -10.8401 4.6686 1 8 70 231
-5.4629 -10.7822 4.6445 1 8 70 231
-5.4509 -10.7251 4.6281 1 8 70 231
-5.4388 -10.668 4.6063 1 8 70 231
-5.428 -10.6138 4.5863 1 8 70 231
-5.4171 -10.5598 4.5655 1 8 70 231
-5.4076 -10.5096 4.5411 1 8 70 231
-5.398 -10.4577 4.5268 1 8 70 231
-5.3884 -10.4071 4.507 1 8 70 231
-5.3768 -10.3535 4.487 1 8 70 231
-5.3667 -10.3017 4.4676 1 8 70 231
-5.3561 -10.2506 4.4483 1 8 70 231
-5.3453 -10.1987 4.4278 1 8 70 231
-5.3362 -10.1502 4.4089 1 8 70 231
-5.3272 -10.1015 4.3919 1 8 70 231
-5.3177 -10.0529 4.3725 1 8 70 231
-5.3079 -10.004 4.3541 1 8 70 231
-5.3 -9.9587 4.3381 1 8 70 231
-5.2892 -9.9084 4.3182 1 8 70 231
-5.2807 -9.8626 4.3012 1 8 70 231
-5.2711 -9.8151 4.2822 1 8 70 231
-5.2637 -9.7726 4.2676 1 8 70 231
-5.7308 -12.1327 5.1409 1 8 70 231
-5.7161 -12.0622 5.1146 1 8 70 231
-5.698 -11.9851 5.0839 1 8 70 231
-5.6878 -11.925 5.0581 1 8 70 231
-5.6736 -11.8568 5.0355 1 8 70 231
-5.662 -11.7946 5.0121 1 8 70 231
-5.6487 -11.728 4.9874 1 8 70 231
-5.6356 -11.6633 4.962 1 8 70 231
-5.6245 -11.6031 4.9412 1 8 70 231
-5.6121 -11.5416 4.9152 1 8 70 231
-5.5993 -11.4775 4.8914 1 8 70 231
-5.5863 -11.4144 4.8684 1 8 70 231
-5.5743 -11.3537 4.8451 1 8 70 231
-5.5612 -11.2912 4.8214 1 8 70 231
-5.5503 -11.2335 4.7993 1 8 70 231
-5.5409 -11.1791 4.7794 1 8 70 231
-5.5288 -11.1203 4.7572 1 8 70 231
-5.5178 -11.0633 4.734 1 8 70 231
-5.5089 -11.0108 4.7149 1 8 70 231
-5.4973 -10.9532 4.6932 1 8 70 231
-5.4847 -10.8939 4.6708 1 8 70 231
-5.4727 -10.8362 4.6494 1 8 70 231
-5.4626 -10.7817 4.6269 1 8 70 231
-5.4507 -10.7247 4.6106 1 8 70 231
-5.4385 -10.6674 4.5889 1 8 70 231
-5.4278 -10.6136 4.5695 1 8 70 231
-5.4177 -10.561 4.5489 1 8 70 231
-5.4077 -10.5098 4.5237 1 8 70 231
-5.3987 -10.4591 4.51 1 8 70 231
-5.3876 -10.4054 4.4894 1 8 70 231
-5.3771 -10.3541 4.4705 1 8 70 231
-5.3669 -10.302 4.451 1 8 70 231
-5.3554 -10.2492 4.4306 1 8 70 231
-5.3454 -10.1989 4.4117 1 8 70 231
-5.3364 -10.1506 4.3925 1 8 70 231
-5.327 -10.1012 4.3753 1 8 70 231
-5.3166 -10.0509 4.3552 1 8 70 231
-5.309 -10.0067 4.3393 1 8 70 231
-5.2992 -9.9573 4.3216 1 8 70 231
-5.2895 -9.9089 4.3023 1 8 70 231
-5.2804 -9.8621 4.2852 1 8 70 231
-5.2719 -9.8165 4.2671 1 8 70 231
-5.2637 -9.7725 4.2516 1 8 70 231
-5.73 -12.1309 5.1208 1 8 70 231
-5.7156 -12.0612 5.0954 1 8 70 231
-5.6973 -11.9836 5.0642 1 8 70 231
-5.687 -11.9233 5.0384 1 8 70 231
-5.675 -11.8599 5.0179 1 8 70 231
-5.6612 -11.7928 4.9926 1 8 70 231
-5.6486 -11.7278 4.9686 1 8 70 231
-5.6362 -11.6646 4.9439 1 8 70 231
-5.6242 -11.6025 4.9224 1 8 70 231
-5.6121 -11.5415 4.8967 1 8 70 231
-5.5996 -11.4781 4.8738 1 8 70 231
-5.5872 -11.4163 4.8509 1 8 70 231
-5.5752 -11.3557 4.8277 1 8 70 231
-5.5611 -11.2909 4.8027 1 8 70 231
-5.5513 -11.2354 4.782 1 8 70 231
-5.5408 -11.1787 4.7613 1 8 70 231
-5.5277 -11.1182 4.7389 1 8 70 231
-5.5187 -11.0652 4.7175 1 8 70 231
-5.5091 -11.0112 4.6974 1 8 70 231
-5.4977 -10.9539 4.6759 1 8 70 231
-5.4843 -10.8931 4.6529 1 8 70 231
-5.4738 -10.8383 4.6328 1 8 70 231
-5.4614 -10.7792 4.6084 1 8 70 231
-5.4511 -10.7255 4.5936 1 8 70 231
-5.4395 -10.6695 4.5725 1 8 70 231
-5.4288 -10.6154 4.5527 1 8 70 231
-5.4186 -10.5628 4.5326 1 8 70 231
-5.4082 -10.5108 4.5076 1 8 70 231
-5.3983 -10.4583 4.4931 1 8 70 231
-5.3877 -10.4056 4.4726 1 8 70 231
-5.3767 -10.3534 4.453 1 8 70 231
-5.366 -10.3002 4.4335 1 8 70 231
-5.3551 -10.2487 4.4137 1 8 70 231
-5.3458 -10.1997 4.3951 1 8 70 231
-5.3356 -10.1491 4.3753 1 8 70 231
-5.3262 -10.0997 4.3582 1 8 70 231
-5.3159 -10.0495 4.3382 1 8 70 231
-5.3074 -10.0037 4.3212 1 8 70 231
-5.3004 -9.9595 4.3059 1 8 70 231
-5.2888 -9.9077 4.2852 1 8 70 231
-5.2801 -9.8615 4.2689 1 8 70 231
-5.2719 -9.8166 4.2507 1 8 70 231
-5.7297 -12.1304 5.1013 1 8 70 231
-5.7159 -12.0618 5.076 1 8 70 231
-5.6984 -11.9859 5.0461 1 8 70 231
-5.6863 -11.9218 5.0188 1 8 70 231
-5.673 -11.8556 4.9972 1 8 70 231
-5.662 -11.7945 4.9745 1 8 70 231
-5.6487 -11.7281 4.95 1 8 70 231
-5.6356 -11.6634 4.9252 1 8 70 231
-5.6242 -11.6025 4.9038 1 8 70 231
-5.6103 -11.5378 4.8767 1 8 70 231
-5.5986 -11.4761 4.8541 1 8 70 231
-5.5865 -11.4149 4.8321 1 8 70 231
-5.5749 -11.355 4.8088 1 8 70 231
-5.5615 -11.2917 4.7854 1 8 70 231
-5.5505 -11.2338 4.7633 1 8 70 231
-5.5391 -11.1754 4.742 1 8 70 231
-5.5279 -11.1186 4.7207 1 8 70 231
-5.5178 -11.0632 4.6984 1 8 70 231
-5.5078 -11.0085 4.6785 1 8 70 231
-5.4964 -10.9513 4.6572 1 8 70 231
-5.4841 -10.8927 4.6352 1 8 70 231
-5.4731 -10.8369 4.6148 1 8 70 231
-5.4614 -10.7793 4.5911 1 8 70 231
-5.4518 -10.7268 4.5768 1 8 70 231
-5.4391 -10.6687 4.5549 1 8 70 231
-5.4271 -10.6121 4.5341 1 8 70 231
-5.4189 -10.5633 4.5157 1 8 70 231
-5.4075 -10.5094 4.4896 1 8 70 231
-5.3983 -10.4583 4.4758 1 8 70 231
-5.3887 -10.4077 4.4566 1 8 70 231
-5.3763 -10.3527 4.4363 1 8 70 231
-5.3656 -10.2995 4.416 1 8 70 231
-5.3549 -10.2483 4.3969 1 8 70 231
-5.3455 -10.199 4.3787 1 8 70 231
-5.3363 -10.1505 4.3594 1 8 70 231
-5.3271 -10.1013 4.3425 1 8 70 231
-5.3159 -10.0495 4.3219 1 8 70 231
-5.3071 -10.0032 4.3052 1 8 70 231
-5.2992 -9.9572 4.2887 1 8 70 231
-5.289 -9.9081 4.2696 1 8 70 231
-5.2788 -9.8592 4.2518 1 8 70 231
-5.2719 -9.8166 4.2351 1 8 70 231
-5.2641 -9.7733 4.22 1 8 70 231
-5.7297 -12.1303 5.082 1 8 70 231
-5.7154 -12.0608 5.0568 1 8 70 231
-5.6976 -11.9842 5.0263 1 8 70 231
-5.6856 -11.9204 4.9992 1 8 70 231
-5.6717 -11.8529 4.9772 1 8 70 231
-5.661 -11.7924 4.9548 1 8 70 231
-5.6493 -11.7294 4.9318 1 8 70 231
-5.636 -11.6642 4.9065 1 8 70 231
-5.6249 -11.6039 4.8854 1 8 70 231
-5.6105 -11.5383 4.8584 1 8 70 231
-5.5985 -11.4759 4.8357 1 8 70 231
-5.5871 -11.416 4.8143 1 8 70 231
-5.5748 -11.3548 4.791 1 8 70 231
-5.5618 -11.2924 4.7671 1 8 70 231
-5.5504 -11.2337 4.7453 1 8 70 231
-5.5392 -11.1755 4.7241 1 8 70 231
-5.5272 -11.1172 4.7027 1 8 70 231
-5.5178 -11.0634 4.6811 1 8 70 231
-5.5086 -11.0101 4.6615 1 8 70 231
-5.4975 -10.9536 4.6405 1 8 70 231
-5.4854 -10.8952 4.6187 1 8 70 231
-5.4737 -10.838 4.5978 1 8 70 231
-5.4625 -10.7813 4.5746 1 8 70 231
-5.4515 -10.7262 4.5593 1 8 70 231
-5.4402 -10.6707 4.5386 1 8 70 231
-5.4277 -10.6134 4.5175 1 8 70 231
-5.4177 -10.5609 4.4977 1 8 70 231
-5.4071 -10.5085 4.4726 1 8 70 231
-5.3973 -10.4565 4.4585 1 8 70 231
-5.3871 -10.4046 4.4384 1 8 70 231
-5.3749 -10.3499 4.4183 1 8 70 231
-5.365 -10.2984 4.3993 1 8 70 231
-5.3543 -10.2472 4.3802 1 8 70 231
-5.3447 -10.1974 4.3614 1 8 70 231
-5.3364 -10.1506 4.343 1 8 70 231
-5.3258 -10.0989 4.325 1 8 70 231
-5.3158 -10.0492 4.3054 1 8 70 231
-5.3064 -10.0018 4.2883 1 8 70 231
-5.2977 -9.9545 4.2713 1 8 70 231
-5.2887 -9.9075 4.2532 1 8 70 231
-5.2792 -9.8598 4.236 1 8 70 231
-5.2713 -9.8155 4.2182 1 8 70 231
-5.7306 -12.1323 5.0636 1 8 70 231
-5.716 -12.0621 5.0377 1 8 70 231
-5.6972 -11.9835 5.007 1 8 70 231
-5.6846 -11.9182 4.9793 1 8 70 231
-5.6726 -11.8548 4.9591 1 8 70 231
-5.6613 -11.7931 4.9363 1 8 70 231
-5.6504 -11.7317 4.9141 1 8 70 231
-5.6368 -11.6657 4.889 1 8 70 231
-5.6242 -11.6025 4.8668 1 8 70 231
-5.6097 -11.5366 4.8397 1 8 70 231
-5.5986 -11.476 4.8178 1 8 70 231
-5.587 -11.4158 4.7959 1 8 70 231
-5.574 -11.3532 4.7721 1 8 70 231
-5.5619 -11.2926 4.7496 1 8 70 231
-5.5489 -11.2306 4.726 1 8 70 231
-5.5385 -11.1742 4.7056 1 8 70 231
-5.5273 -11.1173 4.6845 1 8 70 231
-5.5181 -11.0639 4.6632 1 8 70 231
-5.5082 -11.0093 4.6435 1 8 70 231
-5.497 -10.9526 4.6225 1 8 70 231
-5.4855 -10.8956 4.6013 1 8 70 231
-5.4731 -10.837 4.5799 1 8 70 231
-5.4624 -10.7812 4.5572 1 8 70 231
-5.4518 -10.7268 4.5422 1 8 70 231
-5.44 -10.6703 4.5212 1 8 70 231
-5.4275 -10.6129 4.5006 1 8 70 231
-5.4191 -10.5637 4.4818 1 8 70 231
-5.4077 -10.5098 4.4558 1 8 70 231
-5.397 -10.4558 4.4409 1 8 70 231
-5.3869 -10.404 4.4214 1 8 70 231
-5.3752 -10.3504 4.4018 1 8 70 231
-5.3648 -10.2979 4.3824 1 8 70 231
-5.3544 -10.2474 4.3633 1 8 70 231
-5.3455 -10.199 4.3455 1 8 70 231
-5.3366 -10.1509 4.3267 1 8 70 231
-5.3261 -10.0994 4.3089 1 8 70 231
-5.3153 -10.0483 4.2887 1 8 70 231
-5.307 -10.0029 4.2725 1 8 70 231
-5.2971 -9.9534 4.2551 1 8 70 231
-5.2896 -9.9091 4.2378 1 8 70 231
-5.2794 -9.8603 4.2201 1 8 70 231
-5.2718 -9.8164 4.203 1 8 70 231
-5.73 -12.131 5.0438 1 8 70 231
-5.7165 -12.0632 5.0195 1 8 70 231
-5.6974 -11.9839 4.9881 1 8 70 231
-5.6853 -11.9197 4.961 1 8 70 231
-5.6721 -11.8537 4.9398 1 8 70 231
-5.6617 -11.7939 4.9179 1 8 70 231
-5.6494 -11.7295 4.8945 1 8 70 231
-5.6362 -11.6646 4.8699 1 8 70 231
-5.6229 -11.5999 4.8472 1 8 70 231
-5.6106 -11.5384 4.8217 1 8 70 231
-5.5978 -11.4744 4.7988 1 8 70 231
-5.5871 -11.416 4.7778 1 8 70 231
-5.5744 -11.354 4.7543 1 8 70 231
-5.562 -11.2928 4.7316 1 8 70 231
-5.5499 -11.2326 4.7089 1 8 70 231
-5.5392 -11.1756 4.6883 1 8 70 231
-5.5266 -11.1158 4.6665 1 8 70 231
-5.5181 -11.064 4.6459 1 8 70 231
-5.5083 -11.0095 4.6259 1 8 70 231
-5.4968 -10.9522 4.6048 1 8 70 231
-5.485 -10.8944 4.5834 1 8 70 231
-5.4736 -10.8379 4.5629 1 8 70 231
-5.463 -10.7824 4.5404 1 8 70 231
-5.4516 -10.7264 4.5248 1 8 70 231
-5.44 -10.6704 4.5041 1 8 70 231
-5.4279 -10.6136 4.4834 1 8 70 231
-5.4176 -10.5608 4.4635 1 8 70 231
-5.4065 -10.5075 4.4383 1 8 70 231
-5.3956 -10.4532 4.4234 1 8 70 231
-5.3855 -10.4015 4.4035 1 8 70 231
-5.3754 -10.3509 4.3853 1 8 70 231
-5.3648 -10.298 4.3658 1 8 70 231
-5.3554 -10.2493 4.3475 1 8 70 231
-5.3466 -10.2011 4.33 1 8 70 231
-5.3356 -10.1492 4.3095 1 8 70 231
-5.3245 -10.0964 4.2916 1 8 70 231
-5.3149 -10.0476 4.2721 1 8 70 231
-5.3067 -10.0025 4.2557 1 8 70 231
-5.2991 -9.9571 4.2405 1 8 70 231
-5.2888 -9.9076 4.2206 1 8 70 231
-5.2789 -9.8593 4.2037 1 8 70 231
-5.2725 -9.8177 4.1872 1 8 70 231
-5.73 -12.1309 5.0245 1 8 70 231
-5.7153 -12.0606 4.9989 1 8 70 231
-5.6957 -11.9802 4.9675 1 8 70 231
-5.6843 -11.9176 4.9412 1 8 70 231
-5.6726 -11.8548 4.9214 1 8 70 231
-5.6625 -11.7956 4.8998 1 8 70 231
-5.6492 -11.7291 4.8757 1 8 70 231
-5.6364 -11.6649 4.8515 1 8 70 231
-5.6236 -11.6013 4.8294 1 8 70 231
-5.6094 -11.5359 4.8022 1 8 70 231
-5.5978 -11.4745 4.7806 1 8 70 231
-5.5874 -11.4167 4.7599 1 8 70 231
-5.5735 -11.3521 4.7349 1 8 70 231
-5.5632 -11.2952 4.7146 1 8 70 231
-5.5497 -11.2321 4.6907 1 8 70 231
-5.54 -11.1771 4.6711 1 8 70 231
-5.5278 -11.1183 4.6494 1 8 70 231
-5.5173 -11.0623 4.627 1 8 70 231
-5.5086 -11.0101 4.609 1 8 70 231
-5.4963 -10.9512 4.5868 1 8 70 231
-5.485 -10.8944 4.5659 1 8 70 231
-5.4725 -10.8358 4.5446 1 8 70 231
-5.4631 -10.7825 4.5231 1 8 70 231
-5.4515 -10.7262 4.5075 1 8 70 231
-5.4403 -10.6709 4.4871 1 8 70 231
-5.4292 -10.6161 4.4674 1 8 70 231
-5.4178 -10.5611 4.4467 1 8 70 231
-5.4065 -10.5073 4.4209 1 8 70 231
-5.3956 -10.4531 4.4061 1 8 70 231
-5.385 -10.4005 4.3863 1 8 70 231
-5.3752 -10.3504 4.3684 1 8 70 231
-5.3644 -10.2972 4.3489 1 8 70 231
-5.3554 -10.2493 4.3314 1 8 70 231
-5.3459 -10.1998 4.3129 1 8 70 231
-5.3358 -10.1494 4.2932 1 8 70 231
-5.3253 -10.0979 4.2755 1 8 70 231
-5.3143 -10.0464 4.2553 1 8 70 231
-5.3057 -10.0005 4.239 1 8 70 231
-5.2985 -9.9559 4.2238 1 8 70 231
-5.2881 -9.9064 4.2044 1 8 70 231
-5.2803 -9.8619 4.1888 1 8 70 231
-5.2737 -9.8199 4.1725 1 8 70 231
-5.73 -12.1309 5.0053 1 8 70 231
-5.7153 -12.0606 4.9802 1 8 70 231
-5.6961 -11.9811 4.9489 1 8 70 231
-5.6847 -11.9185 4.9232 1 8 70 231
-5.6729 -11.8553 4.9028 1 8 70 231
-5.6622 -11.7948 4.8808 1 8 70 231
-5.6504 -11.7315 4.858 1 8 70 231
-5.6352 -11.6625 4.8315 1 8 70 231
-5.6239 -11.6019 4.8111 1 8 70 231
-5.6107 -11.5386 4.785 1 8 70 231
-5.5984 -11.4757 4.7624 1 8 70 231
-5.5868 -11.4156 4.7412 1 8 70 231
-5.5742 -11.3536 4.7179 1 8 70 231
-5.5617 -11.2922 4.6953 1 8 70 231
-5.5502 -11.2331 4.6732 1 8 70 231
-5.5384 -11.1739 4.6519 1 8 70 231
-5.5265 -11.1156 4.6309 1 8 70 231
-5.5177 -11.0631 4.6101 1 8 70 231
-5.5085 -11.01 4.5909 1 8 70 231
-5.4971 -10.9528 4.5699 1 8 70 231
-5.4844 -10.8933 4.5484 1 8 70 231
-5.4734 -10.8374 4.5279 1 8 70 231
-5.4626 -10.7815 4.5054 1 8 70 231
-5.451 -10.7252 4.4898 1 8 70 231
-5.4392 -10.6688 4.4691 1 8 70 231
-5.4294 -10.6166 4.4505 1 8 70 231
-5.4176 -10.5608 4.4295 1 8 70 231
-5.4056 -10.5056 4.4037 1 8 70 231
-5.3963 -10.4545 4.3902 1 8 70 231
-5.3858 -10.402 4.3702 1 8 70 231
-5.3764 -10.3527 4.3527 1 8 70 231
-5.3651 -10.2986 4.3328 1 8 70 231
-5.3554 -10.2493 4.3148 1 8 70 231
-5.346 -10.2 4.2965 1 8 70 231
-5.3353 -10.1486 4.2764 1 8 70 231
-5.3249 -10.0971 4.2592 1 8 70 231
-5.3153 -10.0484 4.2399 1 8 70 231
-5.3061 -10.0013 4.2227 1 8 70 231
-5.298 -9.955 4.2073 1 8 70 231
-5.2871 -9.9045 4.1872 1 8 70 231
-5.2795 -9.8604 4.1721 1 8 70 231
-5.2736 -9.8197 4.1561 1 8 70 231
-5.7298 -12.1304 4.9859 1 8 70 231
-5.7143 -12.0584 4.9597 1 8 70 231
-5.6969 -11.9827 4.9306 1 8 70 231
-5.6845 -11.9181 4.9037 1 8 70 231
-5.6749 -11.8595 4.8858 1 8 70 231
-5.6616 -11.7936 4.8615 1 8 70 231
-5.6494 -11.7295 4.8386 1 8 70 231
-5.6356 -11.6633 4.8137 1 8 70 231
-5.6232 -11.6005 4.7921 1 8 70 231
-5.6106 -11.5384 4.767 1 8 70 231
-5.5974 -11.4736 4.7437 1 8 70 231
-5.5863 -11.4145 4.7226 1 8 70 231
-5.5738 -11.3527 4.6995 1 8 70 231
-5.5616 -11.292 4.6772 1 8 70 231
-5.5499 -11.2327 4.6551 1 8 70 231
-5.5391 -11.1753 4.6347 1 8 70 231
-5.5276 -11.1178 4.6136 1 8 70 231
-5.518 -11.0636 4.5922 1 8 70 231
-5.5077 -11.0084 4.573 1 8 70 231
-5.4964 -10.9515 4.5518 1 8 70 231
-5.4848 -10.8941 4.5309 1 8 70 231
-5.4736 -10.8378 4.5107 1 8 70 231
-5.4615 -10.7795 4.4872 1 8 70 231
-5.4498 -10.7228 4.4717 1 8 70 231
-5.4399 -10.6701 4.4525 1 8 70 231
-5.428 -10.6138 4.4327 1 8 70 231
-5.4176 -10.5607 4.4125 1 8 70 231
-5.4056 -10.5055 4.3863 1 8 70 231
-5.3959 -10.4537 4.3731 1 8 70 231
-5.3854 -10.402 4.3537 1 8 70 231
-5.3744 -10.3489 4.3344 1 8 70 231
-5.3661 -10.3005 4.317 1 8 70 231
-5.3568 -10.252 4.2994 1 8 70 231
-5.3459 -10.1998 4.2799 1 8 70 231
-5.3349 -10.1477 4.2597 1 8 70 231
-5.3246 -10.0966 4.2423 1 8 70 231
-5.3156 -10.049 4.2239 1 8 70 231
-5.3061 -10.0012 4.2069 1 8 70 231
-5.2974 -9.9539 4.1907 1 8 70 231
-5.2875 -9.9051 4.1718 1 8 70 231
-5.2809 -9.863 4.1572 1 8 70 231
-5.2738 -9.8201 4.1407 1 8 70 231
-5.7305 -12.132 4.9674 1 8 70 231
-5.7135 -12.0567 4.9405 1 8 70 231
-5.696 -11.9809 4.9109 1 8 70 231
-5.6866 -11.9224 4.887 1 8 70 231
-5.6748 -11.8592 4.8669 1 8 70 231
-5.6615 -11.7935 4.8428 1 8 70 231
-5.6481 -11.7268 4.8189 1 8 70 231
-5.6359 -11.664 4.7955 1 8 70 231
-5.6226 -11.5992 4.7732 1 8 70 231
-5.6109 -11.539 4.7485 1 8 70 231
-5.5987 -11.4762 4.7265 1 8 70 231
-5.5857 -11.4132 4.7039 1 8 70 231
-5.5734 -11.3519 4.681 1 8 70 231
-5.5617 -11.2922 4.6593 1 8 70 231
-5.5492 -11.2312 4.6366 1 8 70 231
-5.5392 -11.1755 4.6169 1 8 70 231
-5.5269 -11.1164 4.5957 1 8 70 231
-5.5183 -11.0643 4.5753 1 8 70 231
-5.5076 -11.0082 4.5549 1 8 70 231
-5.496 -10.9505 4.5339 1 8 70 231
-5.4855 -10.8954 4.5144 1 8 70 231
-5.4726 -10.8358 4.4926 1 8 70 231
-5.461 -10.7785 4.4695 1 8 70 231
-5.4506 -10.7243 4.4551 1 8 70 231
-5.4398 -10.67 4.4354 1 8 70 231
-5.4288 -10.6153 4.4159 1 8 70 231
-5.417 -10.5596 4.3951 1 8 70 231
-5.4069 -10.5081 4.3709 1 8 70 231
-5.3957 -10.4532 4.356 1 8 70 231
-5.3857 -10.4027 4.3369 1 8 70 231
-5.3764 -10.3528 4.3193 1 8 70 231
-5.3651 -10.2986 4.2996 1 8 70 231
-5.3563 -10.251 4.2825 1 8 70 231
-5.3451 -10.1983 4.2628 1 8 70 231
-5.3358 -10.1494 4.244 1 8 70 231
-5.3249 -10.0971 4.2266 1 8 70 231
-5.315 -10.0477 4.2071 1 8 70 231
-5.3061 -10.0012 4.1904 1 8 70 231
-5.2983 -9.9555 4.1752 1 8 70 231
-5.2883 -9.9066 4.1559 1 8 70 231
-5.2802 -9.8616 4.1406 1 8 70 231
-5.2737 -9.8198 4.1243 1 8 70 231
-5.7305 -12.132 4.9482 1 8 70 231
-5.7134 -12.0565 4.9213 1 8 70 231
-5.6966 -11.9822 4.893 1 8 70 231
-5.686 -11.9212 4.8672 1 8 70 231
-5.6744 -11.8586 4.8478 1 8 70 231
-5.6621 -11.7947 4.8246 1 8 70 231
-5.6494 -11.7295 4.8014 1 8 70 231
-5.6349 -11.6618 4.7761 1 8 70 231
-5.6212 -11.5963 4.7536 1 8 70 231
-5.6095 -11.536 4.7294 1 8 70 231
-5.5974 -11.4735 4.7072 1 8 70 231
-5.5863 -11.4143 4.6862 1 8 70 231
-5.5729 -11.3508 4.6626 1 8 70 231
-5.5623 -11.2933 4.6418 1 8 70 231
-5.5495 -11.2317 4.6189 1 8 70 231
-5.5382 -11.1734 4.5983 1 8 70 231
-5.5274 -11.1175 4.5785 1 8 70 231
-5.5174 -11.0624 4.5564 1 8 70 231
-5.5084 -11.0097 4.5384 1 8 70 231
-5.4951 -10.9488 4.5157 1 8 70 231
-5.4854 -10.8953 4.4965 1 8 70 231
-5.4722 -10.8351 4.4749 1 8 70 231
-5.4607 -10.7778 4.452 1 8 70 231
-5.4517 -10.7266 4.4389 1 8 70 231
-5.4403 -10.6709 4.4186 1 8 70 231
-5.4284 -10.6147 4.3986 1 8 70 231
-5.4176 -10.5607 4.3786 1 8 70 231
-5.408 -10.5103 4.355 1 8 70 231
-5.3965 -10.4548 4.3399 1 8 70 231
-5.3868 -10.4046 4.3214 1 8 70 231
-5.3774 -10.3546 4.3034 1 8 70 231
-5.367 -10.3022 4.2845 1 8 70 231
-5.3573 -10.2528 4.2667 1 8 70 231
-5.3451 -10.1983 4.2464 1 8 70 231
-5.3345 -10.147 4.2266 1 8 70 231
-5.325 -10.0973 4.21 1 8 70 231
-5.3161 -10.0498 4.1917 1 8 70 231
-5.3072 -10.0034 4.1755 1 8 70 231
-5.2978 -9.9545 4.1588 1 8 70 231
-5.2877 -9.9056 4.1399 1 8 70 231
-5.2804 -9.862 4.1248 1 8 70 231
-5.2725 -9.8176 4.1078 1 8 70 231
-5.7301 -12.1311 4.9292 1 8 70 231
-5.7133 -12.0563 4.9022 1 8 70 231
-5.6967 -11.9824 4.8737 1 8 70 231
-5.6865 -11.9222 4.8493 1 8 70 231
-5.675 -11.8596 4.8295 1 8 70 231
-5.6609 -11.7921 4.8049 1 8 70 231
-5.6491 -11.7288 4.7825 1 8 70 231
-5.6356 -11.6632 4.7582 1 8 70 231
-5.6224 -11.5986 4.7361 1 8 70 231
-5.6094 -11.5359 4.7106 1 8 70 231
-5.5981 -11.4749 4.6895 1 8 70 231
-5.5851 -11.412 4.6671 1 8 70 231
-5.5723 -11.3497 4.6441 1 8 70 231
-5.5626 -11.2939 4.6241 1 8 70 231
-5.5502 -11.2332 4.6016 1 8 70 231
-5.5377 -11.1725 4.5801 1 8 70 231
-5.5277 -11.1181 4.561 1 8 70 231
-5.518 -11.0636 4.5397 1 8 70 231
-5.5079 -11.0088 4.5201 1 8 70 231
-5.4958 -10.9502 4.4988 1 8 70 231
-5.4835 -10.8914 4.4779 1 8 70 231
-5.4721 -10.835 4.4576 1 8 70 231
-5.4616 -10.7796 4.4355 1 8 70 231
-5.4504 -10.724 4.4206 1 8 70 231
-5.4401 -10.6705 4.4014 1 8 70 231
-5.4286 -10.6149 4.3821 1 8 70 231
-5.4177 -10.5609 4.3618 1 8 70 231
-5.4077 -10.5096 4.3378 1 8 70 231
-5.3969 -10.4556 4.3235 1 8 70 231
-5.3869 -10.405 4.3044 1 8 70 231
-5.3767 -10.3533 4.2862 1 8 70 231
-5.3677 -10.3035 4.2685 1 8 70 231
-5.3574 -10.253 4.2499 1 8 70 231
-5.346 -10.1999 4.2306 1 8 70 231
-5.3349 -10.1478 4.2106 1 8 70 231
-5.3264 -10.0999 4.1952 1 8 70 231
-5.3162 -10.05 4.1756 1 8 70 231
-5.3064 -10.0018 4.1583 1 8 70 231
-5.297 -9.9531 4.1421 1 8 70 231
-5.2879 -9.9059 4.124 1 8 70 231
-5.2808 -9.8627 4.1092 1 8 70 231
-5.273 -9.8185 4.0923 1 8 70 231
-5.264 -9.7731 4.0769 1 8 70 231
-5.7297 -12.1303 4.9093 1 8 70 231
-5.7145 -12.0588 4.8842 1 8 70 231
-5.697 -11.983 4.8555 1 8 70 231
-5.6877 -11.9247 4.831 1 8 70 231
-5.6739 -11.8575 4.8104 1 8 70 231
-5.6605 -11.7912 4.7859 1 8 70 231
-5.6491 -11.7288 4.7645 1 8 70 231
-5.6344 -11.6608 4.7388 1 8 70 231
-5.6224 -11.5987 4.7178 1 8 70 231
-5.6095 -11.536 4.6928 1 8 70 231
-5.5985 -11.4758 4.6717 1 8 70 231
-5.5848 -11.4114 4.6488 1 8 70 231
-5.5722 -11.3494 4.6259 1 8 70 231
-5.5615 -11.2919 4.6053 1 8 70 231
-5.5504 -11.2336 4.584 1 8 70 231
-5.5382 -11.1735 4.5627 1 8 70 231
-5.5276 -11.118 4.5432 1 8 70 231
-5.518 -11.0637 4.5221 1 8 70 231
-5.5077 -11.0084 4.5028 1 8 70 231
-5.495 -10.9486 4.4807 1 8 70 231
-5.4836 -10.8916 4.4602 1 8 70 231
-5.4722 -10.8352 4.4404 1 8 70 231
-5.4613 -10.779 4.4181 1 8 70 231
-5.451 -10.7252 4.404 1 8 70 231
-5.4396 -10.6695 4.3839 1 8 70 231
-5.4292 -10.6161 4.3656 1 8 70 231
-5.419 -10.5635 4.3459 1 8 70 231
-5.4075 -10.5093 4.3209 1 8 70 231
-5.3977 -10.4571 4.3073 1 8 70 231
-5.3879 -10.4067 4.2889 1 8 70 231
-5.3764 -10.3528 4.2694 1 8 70 231
-5.3671 -10.3023 4.2514 1 8 70 231
-5.3558 -10.2499 4.2325 1 8 70 231
-5.3456 -10.1992 4.2139 1 8 70 231
-5.3354 -10.1487 4.1946 1 8 70 231
-5.3262 -10.0995 4.1783 1 8 70 231
-5.3171 -10.0517 4.1601 1 8 70 231
-5.3074 -10.0036 4.1433 1 8 70 231
-5.298 -9.955 4.1268 1 8 70 231
-5.288 -9.9061 4.1081 1 8 70 231
-5.2802 -9.8617 4.0928 1 8 70 231
-5.2731 -9.8188 4.0766 1 8 70 231
-5.7299 -12.1306 4.8908 1 8 70 231
-5.714 -12.0578 4.8648 1 8 70 231
-5.6965 -11.9819 4.8357 1 8 70 231
-5.6877 -11.9247 4.8126 1 8 70 231
-5.6743 -11.8583 4.792 1 8 70 231
-5.6615 -11.7934 4.7686 1 8 70 231
-5.6489 -11.7284 4.7453 1 8 70 231
-5.6357 -11.6636 4.7215 1 8 70 231
-5.6225 -11.5989 4.6995 1 8 70 231
-5.6087 -11.5345 4.6739 1 8 70 231
-5.5989 -11.4766 4.6539 1 8 70 231
-5.5855 -11.4127 4.6312 1 8 70 231
-5.5733 -11.3517 4.6089 1 8 70 231
-5.5623 -11.2933 4.588 1 8 70 231
-5.5499 -11.2325 4.5657 1 8 70 231
-5.5392 -11.1754 4.5457 1 8 70 231
-5.5283 -11.1192 4.5261 1 8 70 231
-5.5182 -11.0641 4.5047 1 8 70 231
-5.5074 -11.0077 4.4845 1 8 70 231
-5.4965 -10.9515 4.4645 1 8 70 231
-5.4823 -10.8892 4.4423 1 8 70 231
-5.4725 -10.8356 4.4233 1 8 70 231
-5.4624 -10.7811 4.4017 1 8 70 231
-5.4503 -10.7238 4.3867 1 8 70 231
-5.4397 -10.6698 4.367 1 8 70 231
-5.4288 -10.6154 4.3483 1 8 70 231
-5.4184 -10.5623 4.3285 1 8 70 231
-5.4085 -10.5112 4.3048 1 8 70 231
-5.3977 -10.4571 4.2905 1 8 70 231
-5.3868 -10.4046 4.2709 1 8 70 231
-5.3758 -10.3515 4.2523 1 8 70 231
-5.3679 -10.3038 4.2355 1 8 70 231
-5.358 -10.2543 4.2179 1 8 70 231
-5.3457 -10.1994 4.1976 1 8 70 231
-5.3353 -10.1485 4.1782 1 8 70 231
-5.326 -10.0992 4.1624 1 8 70 231
-5.3162 -10.05 4.1432 1 8 70 231
-5.3082 -10.0052 4.1278 1 8 70 231
-5.2977 -9.9545 4.1105 1 8 70 231
-5.2865 -9.9033 4.0909 1 8 70 231
-5.2796 -9.8606 4.0764 1 8 70 231
-5.2717 -9.8162 4.0596 1 8 70 231
-5.2639 -9.7729 4.0456 1 8 70 231
-5.7302 -12.1314 4.8716 1 8 70 231
-5.7142 -12.0581 4.846 1 8 70 231
-5.6968 -11.9826 4.8176 1 8 70 231
-5.6881 -11.9255 4.7937 1 8 70 231
-5.6739 -11.8573 4.7729 1 8 70 231
-5.6604 -11.7911 4.7486 1 8 70 231
-5.6482 -11.7269 4.7262 1 8 70 231
-5.6345 -11.661 4.702 1 8 70 231
-5.6224 -11.5987 4.6811 1 8 70 231
-5.6087 -11.5344 4.6557 1 8 70 231
-5.5964 -11.4716 4.6336 1 8 70 231
-5.5851 -11.4119 4.6128 1 8 70 231
-5.5746 -11.3543 4.5919 1 8 70 231
-5.5621 -11.293 4.57 1 8 70 231
-5.5506 -11.234 4.5484 1 8 70 231
-5.5398 -11.1768 4.5286 1 8 70 231
-5.5276 -11.1179 4.5079 1 8 70 231
-5.5179 -11.0635 4.4869 1 8 70 231
-5.5073 -11.0075 4.4674 1 8 70 231
-5.4955 -10.9495 4.4462 1 8 70 231
-5.483 -10.8904 4.425 1 8 70 231
-5.4722 -10.8351 4.4058 1 8 70 231
-5.4614 -10.7791 4.3837 1 8 70 231
-5.451 -10.7252 4.3697 1 8 70 231
-5.4396 -10.6696 4.3498 1 8 70 231
-5.4286 -10.615 4.3312 1 8 70 231
-5.4194 -10.5642 4.3124 1 8 70 231
-5.4075 -10.5094 4.2873 1 8 70 231
-5.3979 -10.4576 4.274 1 8 70 231
-5.3874 -10.4058 4.2551 1 8 70 231
-5.377 -10.3538 4.2366 1 8 70 231
-5.3685 -10.305 4.2195 1 8 70 231
-5.3575 -10.2533 4.201 1 8 70 231
-5.3464 -10.2006 4.1818 1 8 70 231
-5.3347 -10.1474 4.1615 1 8 70 231
-5.3263 -10.0998 4.1464 1 8 70 231
-5.3163 -10.0503 4.1276 1 8 70 231
-5.3072 -10.0033 4.111 1 8 70 231
-5.2979 -9.9548 4.0946 1 8 70 231
-5.2875 -9.9051 4.0757 1 8 70 231
-5.2798 -9.8609 4.0606 1 8 70 231
-5.2724 -9.8174 4.0443 1 8 70 231
-5.7302 -12.1313 4.8529 1 8 70 231
-5.7141 -12.0579 4.8269 1 8 70 231
-5.6965 -11.9819 4.798 1 8 70 231
-5.6869 -11.923 4.7744 1 8 70 231
-5.6731 -11.8557 4.7531 1 8 70 231
-5.6603 -11.791 4.7305 1 8 70 231
-5.6484 -11.7273 4.7079 1 8 70 231
-5.6339 -11.6597 4.6831 1 8 70 231
-5.6227 -11.5993 4.663 1 8 70 231
-5.6095 -11.536 4.6381 1 8 70 231
-5.5981 -11.475 4.6169 1 8 70 231
-5.5849 -11.4116 4.5946 1 8 70 231
-5.5734 -11.3518 4.573 1 8 70 231
-5.5621 -11.293 4.5521 1 8 70 231
-5.5506 -11.2339 4.5306 1 8 70 231
-5.5393 -11.1757 4.5104 1 8 70 231
-5.5277 -11.1181 4.4903 1 8 70 231
-5.5173 -11.0623 4.4688 1 8 70 231
-5.5074 -11.0076 4.45 1 8 70 231
-5.4948 -10.9482 4.4283 1 8 70 231
-5.4829 -10.8902 4.4081 1 8 70 231
-5.4716 -10.8338 4.388 1 8 70 231
-5.4621 -10.7806 4.3672 1 8 70 231
-5.4508 -10.7248 4.3529 1 8 70 231
-5.439 -10.6684 4.3323 1 8 70 231
-5.4287 -10.6152 4.3144 1 8 70 231
-5.4183 -10.5622 4.2951 1 8 70 231
-5.4089 -10.512 4.2716 1 8 70 231
-5.3988 -10.4593 4.258 1 8 70 231
-5.3876 -10.4061 4.2386 1 8 70 231
-5.3783 -10.3564 4.2211 1 8 70 231
-5.3682 -10.3044 4.2027 1 8 70 231
-5.3573 -10.2529 4.184 1 8 70 231
-5.3469 -10.2016 4.1658 1 8 70 231
-5.3346 -10.1471 4.1451 1 8 70 231
-5.3253 -10.0978 4.1293 1 8 70 231
-5.3157 -10.049 4.1105 1 8 70 231
-5.3066 -10.0022 4.0944 1 8 70 231
-5.2973 -9.9537 4.0781 1 8 70 231
-5.2868 -9.9039 4.0593 1 8 70 231
-5.2806 -9.8623 4.0453 1 8 70 231
-5.2735 -9.8194 4.0293 1 8 70 231
-5.7305 -12.132 4.8337 1 8 70 231
-5.7145 -12.0587 4.8083 1 8 70 231
-5.6965 -11.9819 4.7796 1 8 70 231
-5.6877 -11.9246 4.7558 1 8 70 231
-5.6737 -11.857 4.7354 1 8 70 231
-5.6593 -11.7888 4.7106 1 8 70 231
-5.6477 -11.726 4.6893 1 8 70 231
-5.6342 -11.6603 4.6649 1 8 70 231
-5.6221 -11.5981 4.6447 1 8 70 231
-5.6089 -11.5349 4.619 1 8 70 231
-5.5971 -11.4729 4.5979 1 8 70 231
-5.586 -11.4137 4.5779 1 8 70 231
-5.5728 -11.3507 4.5546 1 8 70 231
-5.5625 -11.2938 4.5345 1 8 70 231
-5.55 -11.2328 4.5124 1 8 70 231
-5.54 -11.177 4.4932 1 8 70 231
-5.528 -11.1185 4.4729 1 8 70 231
-5.5179 -11.0635 4.4518 1 8 70 231
-5.5075 -11.008 4.4326 1 8 70 231
-5.495 -10.9484 4.4114 1 8 70 231
-5.4828 -10.89 4.3902 1 8 70 231
-5.4717 -10.8341 4.3709 1 8 70 231
-5.463 -10.7824 4.3507 1 8 70 231
-5.4512 -10.7256 4.3357 1 8 70 231
-5.44 -10.6703 4.3161 1 8 70 231
-5.4295 -10.6167 4.298 1 8 70 231
-5.4198 -10.5649 4.279 1 8 70 231
-5.4078 -10.5099 4.2539 1 8 70 231
-5.3985 -10.4587 4.241 1 8 70 231
-5.3871 -10.4054 4.2217 1 8 70 231
-5.3782 -10.3561 4.2048 1 8 70 231
-5.3684 -10.3048 4.1864 1 8 70 231
-5.3568 -10.2519 4.1675 1 8 70 231
-5.345 -10.198 4.1484 1 8 70 231
-5.3339 -10.1458 4.1282 1 8 70 231
-5.3253 -10.098 4.1132 1 8 70 231
-5.3153 -10.0483 4.0944 1 8 70 231
-5.3072 -10.0032 4.0787 1 8 70 231
-5.2976 -9.9542 4.0623 1 8 70 231
-5.2873 -9.9048 4.0437 1 8 70 231
-5.2822 -9.8653 4.0307 1 8 70 231
-5.2736 -9.8196 4.0135 1 8 70 231
-5.7306 -12.1322 4.8152 1 8 70 231
-5.7136 -12.0568 4.7886 1 8 70 231
-5.6966 -11.982 4.7603 1 8 70 231
-5.6872 -11.9237 4.7372 1 8 70 231
-5.6736 -11.8568 4.7167 1 8 70 231
-5.6604 -11.7911 4.6934 1 8 70 231
-5.6473 -11.725 4.6704 1 8 70 231
-5.6337 -11.6593 4.6462 1 8 70 231
-5.6216 -11.597 4.6255 1 8 70 231
-5.6087 -11.5345 4.601 1 8 70 231
-5.5981 -11.475 4.5807 1 8 70 231
-5.5858 -11.4133 4.5593 1 8 70 231
-5.574 -11.3532 4.5381 1 8 70 231
-5.5627 -11.2941 4.5168 1 8 70 231
-5.5507 -11.2342 4.4952 1 8 70 231
-5.5393 -11.1757 4.4754 1 8 70 231
-5.5276 -11.1179 4.455 1 8 70 231
-5.5186 -11.0649 4.4348 1 8 70 231
-5.5075 -11.008 4.4152 1 8 70 231
-5.4947 -10.9479 4.3934 1 8 70 231
-5.4833 -10.891 4.3738 1 8 70 231
-5.4727 -10.8361 4.3549 1 8 70 231
-5.4625 -10.7814 4.3336 1 8 70 231
-5.4517 -10.7266 4.3194 1 8 70 231
-5.4407 -10.6718 4.3001 1 8 70 231
-5.4291 -10.6159 4.2808 1 8 70 231
-5.4196 -10.5645 4.2624 1 8 70 231
-5.4081 -10.5104 4.2374 1 8 70 231
-5.398 -10.4577 4.2239 1 8 70 231
-5.3875 -10.406 4.2053 1 8 70 231
-5.3775 -10.3549 4.1874 1 8 70 231
-5.3681 -10.3042 4.1697 1 8 70 231
-5.3583 -10.2547 4.1523 1 8 70 231
-5.3466 -10.2011 4.1329 1 8 70 231
-5.334 -10.146 4.1125 1 8 70 231
-5.3254 -10.098 4.097 1 8 70 231
-5.3156 -10.0488 4.0782 1 8 70 231
-5.3075 -10.0039 4.063 1 8 70 231
-5.2967 -9.9525 4.0457 1 8 70 231
-5.2887 -9.9074 4.0288 1 8 70 231
-5.2823 -9.8655 4.0149 1 8 70 231
-5.2737 -9.8198 3.9978 1 8 70 231
-5.7307 -12.1323 4.7958 1 8 70 231
-5.7143 -12.0583 4.7703 1 8 70 231
-5.6962 -11.9812 4.7417 1 8 70 231
-5.6873 -11.9238 4.7185 1 8 70 231
-5.6737 -11.857 4.6982 1 8 70 231
-5.6603 -11.7908 4.6743 1 8 70 231
-5.6467 -11.7238 4.6511 1 8 70 231
-5.6338 -11.6594 4.6279 1 8 70 231
-5.6194 -11.5925 4.6059 1 8 70 231
-5.6083 -11.5336 4.5825 1 8 70 231
-5.5975 -11.4738 4.5621 1 8 70 231
-5.5855 -11.4128 4.5415 1 8 70 231
-5.5741 -11.3533 4.5197 1 8 70 231
-5.5634 -11.2956 4.4996 1 8 70 231
-5.5491 -11.2308 4.4761 1 8 70 231
-5.5396 -11.1764 4.4576 1 8 70 231
-5.5272 -11.1169 4.437 1 8 70 231
-5.5188 -11.0653 4.4174 1 8 70 231
-5.5075 -11.0079 4.3977 1 8 70 231
-5.4946 -10.9478 4.3764 1 8 70 231
-5.4838 -10.8921 4.3569 1 8 70 231
-5.4727 -10.8361 4.3373 1 8 70 231
-5.4628 -10.7819 4.3163 1 8 70 231
-5.4512 -10.7256 4.3016 1 8 70 231
-5.44 -10.6703 4.2821 1 8 70 231
-5.4295 -10.6166 4.2642 1 8 70 231
-5.4185 -10.5624 4.2443 1 8 70 231
-5.4091 -10.5125 4.2214 1 8 70 231
-5.3996 -10.4608 4.2085 1 8 70 231
-5.3882 -10.4074 4.1892 1 8 70 231
-5.3781 -10.3559 4.1717 1 8 70 231
-5.369 -10.306 4.1539 1 8 70 231
-5.3579 -10.2539 4.1356 1 8 70 231
-5.3466 -10.2011 4.1166 1 8 70 231
-5.3341 -10.1462 4.0959 1 8 70 231
-5.3248 -10.097 4.0804 1 8 70 231
-5.3162 -10.0499 4.0629 1 8 70 231
-5.3066 -10.0022 4.0462 1 8 70 231
-5.2986 -9.956 4.0311 1 8 70 231
-5.2898 -9.9095 4.0137 1 8 70 231
-5.2834 -9.8676 3.9999 1 8 70 231
-5.7302 -12.1312 4.7768 1 8 70 231
-5.7149 -12.0596 4.7519 1 8 70 231
-5.6965 -11.9818 4.7227 1 8 70 231
-5.6875 -11.9244 4.7 1 8 70 231
-5.6742 -11.8579 4.6795 1 8 70 231
-5.6608 -11.792 4.6567 1 8 70 231
-5.6459 -11.722 4.6324 1 8 70 231
-5.6338 -11.6595 4.6096 1 8 70 231
-5.6214 -11.5966 4.5889 1 8 70 231
-5.6082 -11.5333 4.5643 1 8 70 231
-5.5983 -11.4753 4.5446 1 8 70 231
-5.586 -11.4138 4.5235 1 8 70 231
-5.5739 -11.3529 4.5017 1 8 70 231
-5.5623 -11.2933 4.4808 1 8 70 231
-5.5506 -11.2339 4.4596 1 8 70 231
-5.539 -11.175 4.4398 1 8 70 231
-5.5275 -11.1176 4.4197 1 8 70 231
-5.5182 -11.064 4.3994 1 8 70 231
-5.5071 -11.007 4.3799 1 8 70 231
-5.4943 -10.9471 4.3584 1 8 70 231
-5.4824 -10.8893 4.3386 1 8 70 231
-5.4726 -10.8359 4.3205 1 8 70 231
-5.4622 -10.7807 4.2991 1 8 70 231
-5.4517 -10.7266 4.2853 1 8 70 231
-5.4398 -10.6698 4.2654 1 8 70 231
-5.4295 -10.6167 4.2473 1 8 70 231
-5.4185 -10.5624 4.2279 1 8 70 231
-5.4093 -10.5127 4.2048 1 8 70 231
-5.3996 -10.4607 4.1918 1 8 70 231
-5.3882 -10.4074 4.1727 1 8 70 231
-5.3788 -10.3573 4.1553 1 8 70 231
-5.3674 -10.3029 4.1366 1 8 70 231
-5.3582 -10.2546 4.1195 1 8 70 231
-5.3455 -10.1989 4.0994 1 8 70 231
-5.3342 -10.1465 4.0798 1 8 70 231
-5.325 -10.0973 4.0644 1 8 70 231
-5.3156 -10.0488 4.0459 1 8 70 231
-5.3074 -10.0037 4.0308 1 8 70 231
-5.2992 -9.9572 4.0156 1 8 70 231
-5.2912 -9.9121 3.9989 1 8 70 231
-5.2832 -9.8673 3.9843 1 8 70 231
-5.7297 -12.1303 4.757 1 8 70 231
-5.7147 -12.0593 4.7329 1 8 70 231
-5.6966 -11.9821 4.7045 1 8 70 231
-5.6871 -11.9234 4.681 1 8 70 231
-5.674 -11.8576 4.6612 1 8 70 231
-5.6596 -11.7894 4.6367 1 8 70 231
-5.6469 -11.7242 4.6144 1 8 70 231
-5.633 -11.6579 4.5906 1 8 70 231
-5.6214 -11.5966 4.5711 1 8 70 231
-5.6091 -11.5352 4.5464 1 8 70 231
-5.5982 -11.4753 4.5265 1 8 70 231
-5.5853 -11.4122 4.5053 1 8 70 231
-5.5733 -11.3517 4.4833 1 8 70 231
-5.5625 -11.2937 4.4632 1 8 70 231
-5.5506 -11.234 4.4419 1 8 70 231
-5.5401 -11.1774 4.4227 1 8 70 231
-5.5288 -11.1202 4.4032 1 8 70 231
-5.5196 -11.0669 4.383 1 8 70 231
-5.5088 -11.0106 4.3639 1 8 70 231
-5.4968 -10.9521 4.3435 1 8 70 231
-5.4842 -10.8929 4.3227 1 8 70 231
-5.4731 -10.8368 4.3032 1 8 70 231
-5.4621 -10.7805 4.2815 1 8 70 231
-5.4513 -10.7258 4.2676 1 8 70 231
-5.4409 -10.672 4.2489 1 8 70 231
-5.4296 -10.617 4.2306 1 8 70 231
-5.4189 -10.5633 4.211 1 8 70 231
-5.408 -10.5102 4.1871 1 8 70 231
-5.3989 -10.4594 4.1746 1 8 70 231
-5.388 -10.4071 4.1559 1 8 70 231
-5.3783 -10.3563 4.1388 1 8 70 231
-5.3684 -10.3048 4.1205 1 8 70 231
-5.3573 -10.2528 4.1024 1 8 70 231
-5.3454 -10.1988 4.0835 1 8 70 231
-5.3332 -10.1444 4.0631 1 8 70 231
-5.3244 -10.0962 4.0478 1 8 70 231
-5.3171 -10.0517 4.0314 1 8 70 231
-5.3076 -10.004 4.0149 1 8 70 231
-5.3 -9.9586 4.0002 1 8 70 231
-5.2918 -9.9132 3.9835 1 8 70 231
-5.7304 -12.1316 4.739 1 8 70 231
-5.7146 -12.0591 4.714 1 8 70 231
-5.697 -11.9828 4.6855 1 8 70 231
-5.6873 -11.9237 4.6624 1 8 70 231
-5.6737 -11.857 4.6424 1 8 70 231
-5.6588 -11.7878 4.618 1 8 70 231
-5.6468 -11.724 4.5964 1 8 70 231
-5.634 -11.6598 4.5731 1 8 70 231
-5.6221 -11.5981 4.553 1 8 70 231
-5.6095 -11.5361 4.5291 1 8 70 231
-5.5986 -11.476 4.5088 1 8 70 231
-5.5857 -11.4132 4.4877 1 8 70 231
-5.5732 -11.3514 4.4658 1 8 70 231
-5.562 -11.2928 4.4454 1 8 70 231
-5.5495 -11.2316 4.4237 1 8 70 231
-5.5405 -11.1781 4.4057 1 8 70 231
-5.5289 -11.1205 4.3862 1 8 70 231
-5.5187 -11.065 4.3648 1 8 70 231
-5.507 -11.0069 4.3451 1 8 70 231
-5.4968 -10.9521 4.3257 1 8 70 231
-5.4845 -10.8934 4.3057 1 8 70 231
-5.4727 -10.8361 4.2862 1 8 70 231
-5.4611 -10.7785 4.264 1 8 70 231
-5.4505 -10.7242 4.2504 1 8 70 231
-5.4404 -10.671 4.232 1 8 70 231
-5.4293 -10.6162 4.2134 1 8 70 231
-5.4196 -10.5646 4.1952 1 8 70 231
-5.4091 -10.5124 4.1712 1 8 70 231
-5.3983 -10.4581 4.1575 1 8 70 231
-5.3884 -10.4078 4.1396 1 8 70 231
-5.3791 -10.3578 4.1225 1 8 70 231
-5.3685 -10.305 4.1046 1 8 70 231
-5.3576 -10.2533 4.0862 1 8 70 231
-5.3438 -10.1958 4.0656 1 8 70 231
-5.3339 -10.1458 4.0475 1 8 70 231
-5.3253 -10.0978 4.0323 1 8 70 231
-5.3163 -10.0501 4.0143 1 8 70 231
-5.3089 -10.0065 3.9999 1 8 70 231
-5.3003 -9.9593 3.9845 1 8 70 231
-5.2919 -9.9134 3.9676 1 8 70 231
-5.2837 -9.8682 3.953 1 8 70 231
-5.7304 -12.1316 4.7201 1 8 70 231
-5.7148 -12.0595 4.6953 1 8 70 231
-5.6966 -11.982 4.667 1 8 70 231
-5.6875 -11.9242 4.644 1 8 70 231
-5.6739 -11.8573 4.6239 1 8 70 231
-5.6593 -11.7888 4.5995 1 8 70 231
-5.6472 -11.7248 4.5779 1 8 70 231
-5.6349 -11.6619 4.5556 1 8 70 231
-5.6224 -11.5987 4.5355 1 8 70 231
-5.609 -11.535 4.5105 1 8 70 231
-5.5985 -11.4759 4.4907 1 8 70 231
-5.5865 -11.4147 4.4704 1 8 70 231
-5.5733 -11.3516 4.4475 1 8 70 231
-5.5632 -11.2952 4.4282 1 8 70 231
-5.5502 -11.2332 4.4061 1 8 70 231
-5.5398 -11.1767 4.3872 1 8 70 231
-5.53 -11.1227 4.369 1 8 70 231
-5.519 -11.0656 4.3476 1 8 70 231
-5.5064 -11.0057 4.3272 1 8 70 231
-5.4962 -10.9508 4.3084 1 8 70 231
-5.4837 -10.8918 4.2878 1 8 70 231
-5.4724 -10.8355 4.2684 1 8 70 231
-5.4615 -10.7792 4.2469 1 8 70 231
-5.4509 -10.725 4.2333 1 8 70 231
-5.4398 -10.6698 4.2142 1 8 70 231
-5.4304 -10.6184 4.1974 1 8 70 231
-5.4199 -10.5651 4.1782 1 8 70 231
-5.4091 -10.5124 4.1546 1 8 70 231
-5.3988 -10.4593 4.1413 1 8 70 231
-5.3884 -10.4077 4.1231 1 8 70 231
-5.3781 -10.356 4.1057 1 8 70 231
-5.367 -10.302 4.0866 1 8 70 231
-5.356 -10.2503 4.0687 1 8 70 231
-5.3454 -10.1988 4.0505 1 8 70 231
-5.3343 -10.1465 4.0316 1 8 70 231
-5.3254 -10.098 4.0163 1 8 70 231
-5.3167 -10.0509 3.999 1 8 70 231
-5.3092 -10.0071 3.9841 1 8 70 231
-5.2998 -9.9584 3.9682 1 8 70 231
-5.2925 -9.9144 3.9526 1 8 70 231
-5.7305 -12.1318 4.7012 1 8 70 231
-5.7151 -12.06 4.6767 1 8 70 231
-5.6977 -11.9844 4.6492 1 8 70 231
-5.6878 -11.9248 4.6256 1 8 70 231
-5.6732 -11.8559 4.6044 1 8 70 231
-5.6599 -11.79 4.582 1 8 70 231
-5.6476 -11.7257 4.5603 1 8 70 231
-5.635 -11.6619 4.5373 1 8 70 231
-5.6229 -11.5997 4.5172 1 8 70 231
-5.6094 -11.5358 4.4927 1 8 70 231
-5.5987 -11.4762 4.4728 1 8 70 231
-5.5863 -11.4144 4.4519 1 8 70 231
-5.5736 -11.3522 4.4299 1 8 70 231
-5.562 -11.2928 4.4099 1 8 70 231
-5.5517 -11.2361 4.39 1 8 70 231
-5.5396 -11.1762 4.3698 1 8 70 231
-5.5295 -11.1216 4.3511 1 8 70 231
-5.5179 -11.0633 4.3293 1 8 70 231
-5.5064 -11.0056 4.3098 1 8 70 231
-5.4961 -10.9507 4.2906 1 8 70 231
-5.4842 -10.8929 4.2711 1 8 70 231
-5.4724 -10.8355 4.2517 1 8 70 231
-5.4621 -10.7804 4.2307 1 8 70 231
-5.451 -10.7251 4.2168 1 8 70 231
-5.4408 -10.6719 4.1985 1 8 70 231
-5.429 -10.6156 4.1795 1 8 70 231
-5.4193 -10.564 4.1614 1 8 70 231
-5.4091 -10.5123 4.1379 1 8 70 231
-5.3988 -10.4593 4.1247 1 8 70 231
-5.3888 -10.4086 4.1069 1 8 70 231
-5.3787 -10.3572 4.0893 1 8 70 231
-5.3663 -10.3007 4.0701 1 8 70 231
-5.3564 -10.2511 4.0527 1 8 70 231
-5.3451 -10.1983 4.0345 1 8 70 231
-5.3357 -10.1492 4.0161 1 8 70 231
-5.3262 -10.0996 4.0008 1 8 70 231
-5.3174 -10.0522 3.9834 1 8 70 231
-5.3092 -10.0071 3.9681 1 8 70 231
-5.3009 -9.9603 3.9535 1 8 70 231
-5.2921 -9.9138 3.9361 1 8 70 231
-5.7296 -12.13 4.6816 1 8 70 231
-5.715 -12.0599 4.6578 1 8 70 231
-5.6979 -11.9849 4.6306 1 8 70 231
-5.6878 -11.9248 4.6069 1 8 70 231
-5.6733 -11.8561 4.5864 1 8 70 231
-5.6601 -11.7905 4.5633 1 8 70 231
-5.6476 -11.7256 4.5415 1 8 70 231
-5.6357 -11.6635 4.5197 1 8 70 231
-5.621 -11.5958 4.498 1 8 70 231
-5.6105 -11.5381 4.4756 1 8 70 231
-5.5986 -11.476 4.4552 1 8 70 231
-5.5863 -11.4144 4.4344 1 8 70 231
-5.5738 -11.3527 4.4123 1 8 70 231
-5.5627 -11.2941 4.3922 1 8 70 231
-5.553 -11.2388 4.373 1 8 70 231
-5.5421 -11.1812 4.3537 1 8 70 231
-5.5298 -11.1222 4.3338 1 8 70 231
-5.5184 -11.0645 4.3123 1 8 70 231
-5.5072 -11.0073 4.2931 1 8 70 231
-5.4956 -10.9497 4.2734 1 8 70 231
-5.4849 -10.8943 4.2544 1 8 70 231
-5.4722 -10.835 4.234 1 8 70 231
-5.4608 -10.7779 4.2122 1 8 70 231
-5.4506 -10.7244 4.1995 1 8 70 231
-5.4404 -10.6711 4.1809 1 8 70 231
-5.4292 -10.616 4.1628 1 8 70 231
-5.4196 -10.5646 4.1445 1 8 70 231
-5.4089 -10.5119 4.121 1 8 70 231
-5.3978 -10.4572 4.1073 1 8 70 231
-5.388 -10.407 4.0898 1 8 70 231
-5.3781 -10.3559 4.0723 1 8 70 231
-5.3663 -10.3008 4.0534 1 8 70 231
-5.3563 -10.251 4.0363 1 8 70 231
-5.3447 -10.1975 4.0175 1 8 70 231
-5.3355 -10.1489 4.0002 1 8 70 231
-5.3262 -10.0995 3.9846 1 8 70 231
-5.3186 -10.0545 3.9683 1 8 70 231
-5.3102 -10.009 3.9529 1 8 70 231
-5.3019 -9.9622 3.9379 1 8 70 231
-5.2919 -9.9134 3.9201 1 8 70 231
-5.7303 -12.1315 4.6633 1 8 70 231
-5.7153 -12.0605 4.6392 1 8 70 231
-5.6976 -11.9842 4.6117 1 8 70 231
-5.6878 -11.9249 4.5884 1 8 70 231
-5.6728 -11.8549 4.5674 1 8 70 231
-5.6594 -11.789 4.5447 1 8 70 231
-5.6467 -11.7237 4.5228 1 8 70 231
-5.6351 -11.6621 4.5009 1 8 70 231
-5.6227 -11.5993 4.4807 1 8 70 231
-5.6095 -11.5359 4.4567 1 8 70 231
-5.5987 -11.4762 4.4368 1 8 70 231
-5.5858 -11.4134 4.4161 1 8 70 231
-5.5742 -11.3535 4.3952 1 8 70 231
-5.5631 -11.295 4.3753 1 8 70 231
-5.5529 -11.2386 4.3557 1 8 70 231
-5.542 -11.1811 4.3365 1 8 70 231
-5.529 -11.1206 4.3157 1 8 70 231
-5.5186 -11.0647 4.295 1 8 70 231
-5.5069 -11.0067 4.2756 1 8 70 231
-5.4951 -10.9486 4.2557 1 8 70 231
-5.4841 -10.8926 4.2366 1 8 70 231
-5.4721 -10.8348 4.2172 1 8 70 231
-5.4631 -10.7825 4.1974 1 8 70 231
-5.4521 -10.7273 4.1837 1 8 70 231
-5.4409 -10.6721 4.1649 1 8 70 231
-5.4299 -10.6175 4.1466 1 8 70 231
-5.4205 -10.5662 4.1288 1 8 70 231
-5.4087 -10.5115 4.1042 1 8 70 231
-5.3978 -10.4573 4.0907 1 8 70 231
-5.3888 -10.4086 4.0738 1 8 70 231
-5.3773 -10.3544 4.0553 1 8 70 231
-5.3664 -10.3009 4.0375 1 8 70 231
-5.3565 -10.2513 4.0202 1 8 70 231
-5.3457 -10.1993 4.0024 1 8 70 231
-5.3357 -10.1493 3.9842 1 8 70 231
-5.3257 -10.0986 3.9682 1 8 70 231
-5.3189 -10.055 3.9525 1 8 70 231
-5.3107 -10.0098 3.9373 1 8 70 231
-5.3015 -9.9615 3.9221 1 8 70 231
-5.2932 -9.9158 3.9052 1 8 70 231
-5.7294 -12.1296 4.6437 1 8 70 231
-5.7158 -12.0614 4.6208 1 8 70 231
-5.6976 -11.9841 4.593 1 8 70 231
-5.6884 -11.926 4.5702 1 8 70 231
-5.6744 -11.8583 4.5502 1 8 70 231
-5.6594 -11.7889 4.5259 1 8 70 231
-5.6477 -11.7258 4.5054 1 8 70 231
-5.6339 -11.6597 4.4822 1 8 70 231
-5.6235 -11.601 4.4637 1 8 70 231
-5.6101 -11.5371 4.4391 1 8 70 231
-5.5978 -11.4744 4.4186 1 8 70 231
-5.5857 -11.4131 4.3982 1 8 70 231
-5.575 -11.355 4.3776 1 8 70 231
-5.5641 -11.2969 4.3579 1 8 70 231
-5.5533 -11.2393 4.3379 1 8 70 231
-5.5419 -11.1808 4.3184 1 8 70 231
-5.5316 -11.1258 4.3003 1 8 70 231
-5.5198 -11.0673 4.2786 1 8 70 231
-5.5068 -11.0066 4.2582 1 8 70 231
-5.4948 -10.9481 4.2382 1 8 70 231
-5.4837 -10.8917 4.2191 1 8 70 231
-5.4726 -10.8359 4.2001 1 8 70 231
-5.4633 -10.7828 4.1801 1 8 70 231
-5.4511 -10.7254 4.166 1 8 70 231
-5.4403 -10.6708 4.1471 1 8 70 231
-5.4306 -10.6187 4.1303 1 8 70 231
-5.4186 -10.5627 4.1107 1 8 70 231
-5.4082 -10.5107 4.0873 1 8 70 231
-5.3983 -10.4582 4.0745 1 8 70 231
-5.3878 -10.4066 4.0566 1 8 70 231
-5.3779 -10.3555 4.0397 1 8 70 231
-5.3667 -10.3014 4.0209 1 8 70 231
-5.3556 -10.2495 4.0032 1 8 70 231
-5.3459 -10.1998 3.986 1 8 70 231
-5.3365 -10.1508 3.9687 1 8 70 231
-5.3271 -10.1012 3.9532 1 8 70 231
-5.3189 -10.0551 3.9365 1 8 70 231
-5.3115 -10.0114 3.9224 1 8 70 231
-5.302 -9.9624 3.9062 1 8 70 231
-5.2932 -9.9158 3.8898 1 8 70 231
-5.7296 -12.13 4.625 1 8 70 231
-5.7156 -12.0611 4.6019 1 8 70 231
-5.6978 -11.9846 4.5745 1 8 70 231
-5.6877 -11.9247 4.5511 1 8 70 231
-5.6736 -11.8567 4.5311 1 8 70 231
-5.6602 -11.7907 4.5086 1 8 70 231
-5.6475 -11.7255 4.4869 1 8 70 231
-5.6345 -11.6609 4.464 1 8 70 231
-5.6243 -11.6025 4.4462 1 8 70 231
-5.6097 -11.5365 4.4208 1 8 70 231
-5.5977 -11.4741 4.4001 1 8 70 231
-5.5865 -11.4147 4.3809 1 8 70 231
-5.5751 -11.3553 4.3603 1 8 70 231
-5.5644 -11.2975 4.3408 1 8 70 231
-5.5526 -11.238 4.3202 1 8 70 231
-5.5412 -11.1794 4.3008 1 8 70 231
-5.5304 -11.1234 4.2818 1 8 70 231
-5.5184 -11.0644 4.2601 1 8 70 231
-5.5076 -11.0081 4.2415 1 8 70 231
-5.496 -10.9506 4.222 1 8 70 231
-5.4836 -10.8915 4.2019 1 8 70 231
-5.4735 -10.8376 4.1841 1 8 70 231
-5.4624 -10.781 4.1629 1 8 70 231
-5.4527 -10.7284 4.1503 1 8 70 231
-5.4406 -10.6714 4.1309 1 8 70 231
-5.4295 -10.6167 4.1128 1 8 70 231
-5.4189 -10.5632 4.0943 1 8 70 231
-5.4087 -10.5115 4.071 1 8 70 231
-5.3988 -10.4592 4.0584 1 8 70 231
-5.3888 -10.4085 4.0409 1 8 70 231
-5.3779 -10.3555 4.0229 1 8 70 231
-5.3669 -10.3019 4.0052 1 8 70 231
-5.3566 -10.2514 3.9877 1 8 70 231
-5.3467 -10.2012 3.9708 1 8 70 231
-5.3364 -10.1506 3.9521 1 8 70 231
-5.3283 -10.1034 3.938 1 8 70 231
-5.3209 -10.0589 3.922 1 8 70 231
-5.3113 -10.011 3.9059 1 8 70 231
-5.3017 -9.9619 3.8906 1 8 70 231
-5.2932 -9.9157 3.8736 1 8 70 231
-5.7296 -12.13 4.6061 1 8 70 231
-5.7147 -12.0591 4.5824 1 8 70 231
-5.6989 -11.987 4.5568 1 8 70 231
-5.6883 -11.9259 4.533 1 8 70 231
-5.6743 -11.8581 4.5132 1 8 70 231
-5.6598 -11.7898 4.4895 1 8 70 231
-5.6479 -11.7263 4.4685 1 8 70 231
-5.6348 -11.6616 4.4465 1 8 70 231
-5.623 -11.5998 4.427 1 8 70 231
-5.6103 -11.5377 4.4032 1 8 70 231
-5.5984 -11.4755 4.3831 1 8 70 231
