-5.2932 -7.6383 -0.2873 1 132 78 186
-5.3307 -7.6308 -0.2875 1 132 78 186
-5.3433 -7.6284 -0.29 1 132 78 186
-5.4178 -7.612 -0.2894 1 132 78 186
-4.816 -7.7333 -0.2934 1 132 78 186
-4.8274 -7.73 -0.2943 1 132 78 186
-4.8768 -7.7223 -0.2938 1 132 78 186
-4.8884 -7.7192 -0.296 1 132 78 186
-4.9002 -7.7164 -0.2929 1 132 78 186
-4.9125 -7.7144 -0.2954 1 132 78 186
-4.9247 -7.7121 -0.297 1 132 78 186
-4.9384 -7.7122 -0.2955 1 132 78 186
-4.9505 -7.7096 -0.2971 1 132 78 186
-4.9627 -7.7074 -0.2943 1 132 78 186
-4.9749 -7.705 -0.2974 1 132 78 186
-4.9874 -7.703 -0.2955 1 132 78 186
-4.999 -7.6997 -0.2939 1 132 78 186
-5.0113 -7.6975 -0.2984 1 132 78 186
-5.0234 -7.695 -0.2954 1 132 78 186
-5.0358 -7.6929 -0.2984 1 132 78 186
-5.0479 -7.6901 -0.2965 1 132 78 186
-5.0628 -7.6917 -0.2954 1 132 78 186
-5.071 -7.6833 -0.2962 1 132 78 186
-5.0818 -7.6786 -0.2965 1 132 78 186
-5.0957 -7.6786 -0.2971 1 132 78 186
-5.1079 -7.676 -0.2978 1 132 78 186
-5.1181 -7.6704 -0.2964 1 132 78 186
-5.1311 -7.6691 -0.2974 1 132 78 186
-5.1424 -7.6651 -0.2981 1 132 78 186
-5.1564 -7.665 -0.2984 1 132 78 186
-5.1692 -7.6633 -0.2988 1 132 78 186
-5.1817 -7.6611 -0.2979 1 132 78 186
-5.1937 -7.658 -0.2989 1 132 78 186
-5.2058 -7.6551 -0.3002 1 132 78 186
-5.2182 -7.6526 -0.2994 1 132 78 186
-5.2302 -7.6496 -0.3005 1 132 78 186
-5.2434 -7.6482 -0.2989 1 132 78 186
-5.2558 -7.6456 -0.3005 1 132 78 186
-5.2688 -7.644 -0.2978 1 132 78 186
-5.2802 -7.64 -0.3005 1 132 78 186
-5.2932 -7.6383 -0.2987 1 132 78 186
-5.3302 -7.6301 -0.2992 1 132 78 186
-5.3429 -7.6278 -0.302 1 132 78 186
-5.3554 -7.6252 -0.3001 1 132 78 186
-4.8209 -7.7412 -0.3052 1 132 78 186
-4.8285 -7.7317 -0.3059 1 132 78 186
-4.8765 -7.7218 -0.3053 1 132 78 186
-4.8895 -7.721 -0.3072 1 132 78 186
-4.902 -7.7192 -0.3048 1 132 78 186
-4.9126 -7.7145 -0.3069 1 132 78 186
-4.9232 -7.7097 -0.3081 1 132 78 186
-4.938 -7.7115 -0.3073 1 132 78 186
-4.9504 -7.7095 -0.3083 1 132 78 186
-4.962 -7.7063 -0.3055 1 132 78 186
-4.9736 -7.7031 -0.3088 1 132 78 186
-4.9866 -7.7019 -0.307 1 132 78 186
-4.9988 -7.6994 -0.3054 1 132 78 186
-5.0097 -7.6951 -0.3099 1 132 78 186
-5.024 -7.6959 -0.3072 1 132 78 186
-5.0358 -7.6928 -0.31 1 132 78 186
-5.0486 -7.6912 -0.3081 1 132 78 186
-5.0615 -7.6898 -0.3069 1 132 78 186
-5.0712 -7.6835 -0.3081 1 132 78 186
-5.0825 -7.6796 -0.3084 1 132 78 186
-5.0947 -7.6771 -0.3089 1 132 78 186
-5.1089 -7.6775 -0.3095 1 132 78 186
-5.1183 -7.6707 -0.308 1 132 78 186
-5.1309 -7.6688 -0.309 1 132 78 186
-5.1436 -7.6668 -0.3101 1 132 78 186
-5.1563 -7.6649 -0.3097 1 132 78 186
-5.1682 -7.6619 -0.3107 1 132 78 186
-5.1813 -7.6605 -0.3098 1 132 78 186
-5.1938 -7.6582 -0.3105 1 132 78 186
-5.2061 -7.6555 -0.3115 1 132 78 186
-5.2185 -7.653 -0.3108 1 132 78 186
-5.23 -7.6493 -0.3121 1 132 78 186
-5.244 -7.6491 -0.3106 1 132 78 186
-5.2567 -7.647 -0.3126 1 132 78 186
-5.2681 -7.643 -0.3094 1 132 78 186
-5.2806 -7.6406 -0.3123 1 132 78 186
-5.2938 -7.6392 -0.3104 1 132 78 186
-5.331 -7.6312 -0.3109 1 132 78 186
-5.3431 -7.628 -0.3134 1 132 78 186
-5.3552 -7.6249 -0.3118 1 132 78 186
-5.4055 -7.6149 -0.3122 1 132 78 186
-4.829 -7.7325 -0.3174 1 132 78 186
-4.8754 -7.7201 -0.3167 1 132 78 186
-4.888 -7.7186 -0.3186 1 132 78 186
-4.9006 -7.7171 -0.316 1 132 78 186
-4.9121 -7.7137 -0.3184 1 132 78 186
-4.924 -7.711 -0.32 1 132 78 186
-4.937 -7.71 -0.3184 1 132 78 186
-4.9502 -7.7091 -0.3201 1 132 78 186
-4.961 -7.7048 -0.3173 1 132 78 186
-4.9737 -7.7031 -0.3204 1 132 78 186
-4.986 -7.701 -0.3185 1 132 78 186
-4.9973 -7.6972 -0.3169 1 132 78 186
-5.01 -7.6955 -0.3214 1 132 78 186
-5.0236 -7.6952 -0.3185 1 132 78 186
-5.0342 -7.6903 -0.3214 1 132 78 186
-5.0467 -7.6884 -0.3196 1 132 78 186
-5.0604 -7.6882 -0.3184 1 132 78 186
-5.0711 -7.6834 -0.3193 1 132 78 186
-5.0837 -7.6814 -0.3198 1 132 78 186
-5.0958 -7.6787 -0.3203 1 132 78 186
-5.1091 -7.6779 -0.3211 1 132 78 186
-5.1196 -7.6727 -0.3194 1 132 78 186
-5.131 -7.6688 -0.3207 1 132 78 186
-5.1438 -7.6672 -0.3214 1 132 78 186
-5.1562 -7.6647 -0.3216 1 132 78 186
-5.1691 -7.6631 -0.3221 1 132 78 186
-5.1815 -7.6607 -0.3214 1 132 78 186
-5.194 -7.6585 -0.3222 1 132 78 186
-5.2057 -7.6549 -0.3232 1 132 78 186
-5.2188 -7.6536 -0.3225 1 132 78 186
-5.231 -7.6508 -0.3238 1 132 78 186
-5.2432 -7.648 -0.3222 1 132 78 186
-5.2564 -7.6466 -0.3239 1 132 78 186
-5.2682 -7.6431 -0.3211 1 132 78 186
-5.2805 -7.6405 -0.3239 1 132 78 186
-5.294 -7.6394 -0.3221 1 132 78 186
-4.8303 -7.7347 -0.329 1 132 78 186
-4.8755 -7.7204 -0.3282 1 132 78 186
-4.8885 -7.7194 -0.3302 1 132 78 186
-4.8999 -7.7159 -0.3277 1 132 78 186
-4.9116 -7.7129 -0.3299 1 132 78 186
-4.9233 -7.7099 -0.3311 1 132 78 186
-4.9353 -7.7073 -0.3301 1 132 78 186
-4.9466 -7.7036 -0.3311 1 132 78 186
-4.961 -7.7047 -0.3285 1 132 78 186
-4.9741 -7.7038 -0.3319 1 132 78 186
-4.9864 -7.7016 -0.3301 1 132 78 186
-4.9987 -7.6993 -0.3285 1 132 78 186
-5.0124 -7.6993 -0.3331 1 132 78 186
-5.0228 -7.694 -0.3303 1 132 78 186
-5.0345 -7.6908 -0.333 1 132 78 186
-5.0457 -7.6869 -0.3311 1 132 78 186
-5.0588 -7.6857 -0.3299 1 132 78 186
-5.0698 -7.6814 -0.3311 1 132 78 186
-5.0832 -7.6807 -0.3314 1 132 78 186
-5.0952 -7.6778 -0.3321 1 132 78 186
-5.1075 -7.6754 -0.3326 1 132 78 186
-5.1215 -7.6756 -0.3314 1 132 78 186
-5.1328 -7.6716 -0.3324 1 132 78 186
-5.145 -7.6689 -0.3334 1 132 78 186
-5.1576 -7.6668 -0.333 1 132 78 186
-5.1692 -7.6633 -0.3337 1 132 78 186
-5.1814 -7.6606 -0.333 1 132 78 186
-5.1937 -7.6581 -0.3338 1 132 78 186
-5.206 -7.6554 -0.3348 1 132 78 186
-5.219 -7.6538 -0.3342 1 132 78 186
-5.2318 -7.6519 -0.3353 1 132 78 186
-5.2441 -7.6493 -0.3337 1 132 78 186
-5.2567 -7.6469 -0.3359 1 132 78 186
-5.2695 -7.6451 -0.3329 1 132 78 186
-5.2802 -7.64 -0.3356 1 132 78 186
-5.2938 -7.6391 -0.3341 1 132 78 186
-5.3434 -7.6285 -0.3369 1 132 78 186
-5.3555 -7.6253 -0.3353 1 132 78 186
-4.8166 -7.7342 -0.3393 1 132 78 186
-4.8258 -7.7274 -0.3401 1 132 78 186
-4.8752 -7.7198 -0.3397 1 132 78 186
-4.8872 -7.7173 -0.3419 1 132 78 186
-4.9 -7.7161 -0.3389 1 132 78 186
-4.9121 -7.7136 -0.3414 1 132 78 186
-4.9241 -7.7111 -0.343 1 132 78 186
-4.9342 -7.7055 -0.3413 1 132 78 186
-4.9461 -7.7028 -0.3429 1 132 78 186
-4.9604 -7.7037 -0.3403 1 132 78 186
-4.973 -7.702 -0.3434 1 132 78 186
-4.9836 -7.6972 -0.3415 1 132 78 186
-4.9963 -7.6956 -0.3399 1 132 78 186
-5.0102 -7.6958 -0.3445 1 132 78 186
-5.0223 -7.6933 -0.3415 1 132 78 186
-5.0335 -7.6893 -0.3445 1 132 78 186
-5.0457 -7.6869 -0.3427 1 132 78 186
-5.0574 -7.6836 -0.3414 1 132 78 186
-5.0695 -7.6809 -0.3424 1 132 78 186
-5.0823 -7.6793 -0.3429 1 132 78 186
-5.095 -7.6775 -0.3434 1 132 78 186
-5.1075 -7.6754 -0.3442 1 132 78 186
-5.12 -7.6733 -0.3426 1 132 78 186
-5.1323 -7.6708 -0.344 1 132 78 186
-5.1448 -7.6686 -0.3447 1 132 78 186
-5.156 -7.6644 -0.3448 1 132 78 186
-5.1682 -7.6618 -0.3453 1 132 78 186
-5.1807 -7.6596 -0.3443 1 132 78 186
-5.1931 -7.6571 -0.3454 1 132 78 186
-5.2063 -7.6558 -0.3465 1 132 78 186
-5.2193 -7.6542 -0.3461 1 132 78 186
-5.2318 -7.6518 -0.3472 1 132 78 186
-5.2433 -7.648 -0.3456 1 132 78 186
-5.2577 -7.6485 -0.3474 1 132 78 186
-5.2674 -7.6419 -0.3444 1 132 78 186
-5.2798 -7.6394 -0.3473 1 132 78 186
-5.2915 -7.6358 -0.3454 1 132 78 186
-5.3295 -7.629 -0.346 1 132 78 186
-5.3414 -7.6256 -0.3484 1 132 78 186
-5.355 -7.6247 -0.3469 1 132 78 186
-5.3666 -7.6207 -0.3462 1 132 78 186
-5.3911 -7.6148 -0.3471 1 132 78 186
-5.4052 -7.6144 -0.3474 1 132 78 186
-5.4165 -7.6101 -0.3481 1 132 78 186
-5.4285 -7.6067 -0.3483 1 132 78 186
-5.467 -7.5998 -0.3486 1 132 78 186
-5.4795 -7.5971 -0.35 1 132 78 186
-4.8152 -7.7319 -0.3506 1 132 78 186
-4.8275 -7.73 -0.3517 1 132 78 186
-4.8757 -7.7206 -0.3512 1 132 78 186
-4.8881 -7.7188 -0.3531 1 132 78 186
-4.8996 -7.7154 -0.3507 1 132 78 186
-4.912 -7.7135 -0.3529 1 132 78 186
-4.923 -7.7094 -0.3541 1 132 78 186
-4.9347 -7.7064 -0.3531 1 132 78 186
-4.9464 -7.7033 -0.3541 1 132 78 186
-4.9597 -7.7026 -0.3515 1 132 78 186
-4.9726 -7.7015 -0.3549 1 132 78 186
-4.9844 -7.6984 -0.353 1 132 78 186
-4.9977 -7.6978 -0.3516 1 132 78 186
-5.0097 -7.695 -0.3561 1 132 78 186
-5.0218 -7.6925 -0.3534 1 132 78 186
-5.0339 -7.6898 -0.3561 1 132 78 186
-5.0456 -7.6867 -0.3543 1 132 78 186
-5.0581 -7.6847 -0.353 1 132 78 186
-5.0702 -7.6819 -0.3543 1 132 78 186
-5.0831 -7.6805 -0.3548 1 132 78 186
-5.0947 -7.6771 -0.3553 1 132 78 186
-5.1074 -7.6752 -0.3558 1 132 78 186
-5.1196 -7.6727 -0.3545 1 132 78 186
-5.1323 -7.6709 -0.3556 1 132 78 186
-5.1437 -7.667 -0.3566 1 132 78 186
-5.1563 -7.6649 -0.3562 1 132 78 186
-5.1692 -7.6632 -0.357 1 132 78 186
-5.1816 -7.6609 -0.3563 1 132 78 186
-5.1939 -7.6583 -0.3571 1 132 78 186
-5.2057 -7.655 -0.3581 1 132 78 186
-5.2191 -7.6539 -0.3575 1 132 78 186
-5.2303 -7.6497 -0.3588 1 132 78 186
-5.2425 -7.6468 -0.3569 1 132 78 186
-5.2574 -7.648 -0.3593 1 132 78 186
-5.2675 -7.6422 -0.3561 1 132 78 186
-5.2798 -7.6394 -0.3589 1 132 78 186
-5.2917 -7.6361 -0.3571 1 132 78 186
-5.2979 -7.6245 -0.358 1 132 78 186
-5.3296 -7.6291 -0.3577 1 132 78 186
-5.3422 -7.6268 -0.3602 1 132 78 186
-5.355 -7.6246 -0.3587 1 132 78 186
-5.3671 -7.6215 -0.3577 1 132 78 186
-5.3913 -7.6151 -0.3592 1 132 78 186
-5.4034 -7.612 -0.3591 1 132 78 186
-5.4153 -7.6084 -0.3598 1 132 78 186
-5.4283 -7.6065 -0.36 1 132 78 186
-5.4787 -7.596 -0.3614 1 132 78 186
-4.8147 -7.7312 -0.3621 1 132 78 186
-4.8269 -7.729 -0.3631 1 132 78 186
-4.8748 -7.7191 -0.3627 1 132 78 186
-4.8869 -7.7168 -0.3646 1 132 78 186
-4.8993 -7.7149 -0.3619 1 132 78 186
-4.9108 -7.7117 -0.3643 1 132 78 186
-4.9234 -7.71 -0.3657 1 132 78 186
-4.9352 -7.7071 -0.3644 1 132 78 186
-4.9465 -7.7035 -0.366 1 132 78 186
-4.9603 -7.7036 -0.3634 1 132 78 186
-4.9727 -7.7015 -0.3665 1 132 78 186
-4.9846 -7.6988 -0.3646 1 132 78 186
-4.9976 -7.6977 -0.3631 1 132 78 186
-5.0091 -7.6941 -0.3676 1 132 78 186
-5.0204 -7.6904 -0.3645 1 132 78 186
-5.0333 -7.6889 -0.3677 1 132 78 186
-5.0449 -7.6855 -0.3658 1 132 78 186
-5.0581 -7.6846 -0.3646 1 132 78 186
-5.0703 -7.6821 -0.3656 1 132 78 186
-5.0826 -7.6797 -0.3661 1 132 78 186
-5.095 -7.6775 -0.3666 1 132 78 186
-5.108 -7.6762 -0.3674 1 132 78 186
-5.1209 -7.6746 -0.3659 1 132 78 186
-5.1319 -7.6701 -0.3672 1 132 78 186
-5.1435 -7.6667 -0.3679 1 132 78 186
-5.1565 -7.6653 -0.3681 1 132 78 186
-5.169 -7.663 -0.3686 1 132 78 186
-5.1816 -7.6609 -0.368 1 132 78 186
-5.1937 -7.658 -0.369 1 132 78 186
-5.206 -7.6555 -0.3701 1 132 78 186
-5.2184 -7.653 -0.3694 1 132 78 186
-5.2305 -7.65 -0.3705 1 132 78 186
-5.2441 -7.6492 -0.369 1 132 78 186
-5.2676 -7.6423 -0.3678 1 132 78 186
-5.2794 -7.6389 -0.3706 1 132 78 186
-5.2922 -7.6368 -0.3688 1 132 78 186
-5.3004 -7.6281 -0.3699 1 132 78 186
-5.3297 -7.6293 -0.3694 1 132 78 186
-5.3429 -7.6277 -0.372 1 132 78 186
-5.3552 -7.6249 -0.3704 1 132 78 186
-5.3673 -7.6218 -0.3697 1 132 78 186
-5.4048 -7.6139 -0.3709 1 132 78 186
-5.4156 -7.6088 -0.3716 1 132 78 186
-5.4288 -7.6071 -0.3718 1 132 78 186
-5.4419 -7.6052 -0.3721 1 132 78 186
-5.4666 -7.5993 -0.3722 1 132 78 186
-4.8141 -7.7302 -0.3735 1 132 78 186
-4.8271 -7.7295 -0.3746 1 132 78 186
-4.8741 -7.718 -0.3741 1 132 78 186
-4.8871 -7.7172 -0.3761 1 132 78 186
-4.8988 -7.7142 -0.3736 1 132 78 186
-4.9098 -7.71 -0.3757 1 132 78 186
-4.9214 -7.7068 -0.377 1 132 78 186
-4.9354 -7.7075 -0.3762 1 132 78 186
-4.9479 -7.7055 -0.3773 1 132 78 186
-4.9606 -7.7041 -0.3747 1 132 78 186
-4.972 -7.7005 -0.378 1 132 78 186
-4.9849 -7.6992 -0.3762 1 132 78 186
-4.9966 -7.6961 -0.3746 1 132 78 186
-5.0093 -7.6944 -0.3792 1 132 78 186
-5.0209 -7.6912 -0.3764 1 132 78 186
-5.0326 -7.6879 -0.3792 1 132 78 186
-5.0457 -7.6869 -0.3774 1 132 78 186
-5.0576 -7.6838 -0.3761 1 132 78 186
-5.0697 -7.6812 -0.3775 1 132 78 186
-5.0827 -7.6799 -0.3777 1 132 78 186
-5.0961 -7.6791 -0.3786 1 132 78 186
-5.1087 -7.6771 -0.3791 1 132 78 186
-5.1207 -7.6742 -0.3778 1 132 78 186
-5.132 -7.6703 -0.3788 1 132 78 186
-5.1434 -7.6665 -0.3798 1 132 78 186
-5.1566 -7.6653 -0.3795 1 132 78 186
-5.1686 -7.6623 -0.3802 1 132 78 186
-5.1811 -7.6601 -0.3796 1 132 78 186
-5.1934 -7.6576 -0.3804 1 132 78 186
-5.2054 -7.6545 -0.3814 1 132 78 186
-5.2184 -7.6529 -0.3808 1 132 78 186
-5.231 -7.6507 -0.3819 1 132 78 186
-5.2437 -7.6486 -0.3803 1 132 78 186
-5.2579 -7.6487 -0.3827 1 132 78 186
-5.2675 -7.6421 -0.3795 1 132 78 186
-5.2799 -7.6395 -0.3823 1 132 78 186
-5.293 -7.638 -0.3808 1 132 78 186
-5.3024 -7.631 -0.3817 1 132 78 186
-5.3297 -7.6293 -0.3811 1 132 78 186
-5.3428 -7.6276 -0.3837 1 132 78 186
-5.3552 -7.6248 -0.3821 1 132 78 186
-5.367 -7.6214 -0.3814 1 132 78 186
-5.4046 -7.6136 -0.3826 1 132 78 186
-5.4155 -7.6086 -0.3833 1 132 78 186
-5.4281 -7.6061 -0.3835 1 132 78 186
-5.4404 -7.6031 -0.384 1 132 78 186
-5.4539 -7.6018 -0.384 1 132 78 186
-4.8153 -7.7322 -0.3851 1 132 78 186
-4.8265 -7.7285 -0.386 1 132 78 186
-4.8747 -7.7191 -0.3856 1 132 78 186
-4.8866 -7.7163 -0.3875 1 132 78 186
-4.8977 -7.7125 -0.3848 1 132 78 186
-4.9088 -7.7084 -0.3872 1 132 78 186
-4.9217 -7.7073 -0.3886 1 132 78 186
-4.9349 -7.7066 -0.3874 1 132 78 186
-4.9481 -7.7059 -0.3891 1 132 78 186
-4.9597 -7.7027 -0.3864 1 132 78 186
-4.9712 -7.6993 -0.3894 1 132 78 186
-4.9831 -7.6965 -0.3876 1 132 78 186
-4.9954 -7.6943 -0.3861 1 132 78 186
-5.008 -7.6925 -0.3906 1 132 78 186
-5.0209 -7.691 -0.3877 1 132 78 186
-5.0329 -7.6883 -0.3905 1 132 78 186
-5.0457 -7.6867 -0.389 1 132 78 186
-5.058 -7.6844 -0.3877 1 132 78 186
-5.0691 -7.6804 -0.3887 1 132 78 186
-5.083 -7.6803 -0.3893 1 132 78 186
-5.0951 -7.6776 -0.3898 1 132 78 186
-5.108 -7.6761 -0.3906 1 132 78 186
-5.1205 -7.674 -0.3891 1 132 78 186
-5.1325 -7.6711 -0.3905 1 132 78 186
-5.1434 -7.6665 -0.3911 1 132 78 186
-5.1557 -7.664 -0.3913 1 132 78 186
-5.1682 -7.6618 -0.3918 1 132 78 186
-5.1803 -7.6589 -0.3909 1 132 78 186
-5.1929 -7.6568 -0.392 1 132 78 186
-5.206 -7.6554 -0.3931 1 132 78 186
-5.2184 -7.6529 -0.3927 1 132 78 186
-5.2306 -7.6501 -0.3938 1 132 78 186
-5.2439 -7.649 -0.3923 1 132 78 186
-5.2555 -7.6452 -0.3939 1 132 78 186
-5.2679 -7.6427 -0.3912 1 132 78 186
-5.2797 -7.6392 -0.394 1 132 78 186
-5.2925 -7.6373 -0.3922 1 132 78 186
-5.3043 -7.6338 -0.3935 1 132 78 186
-5.3296 -7.6292 -0.3928 1 132 78 186
-5.3416 -7.626 -0.3953 1 132 78 186
-5.3537 -7.6227 -0.3938 1 132 78 186
-5.3669 -7.6212 -0.3932 1 132 78 186
-5.4049 -7.614 -0.3944 1 132 78 186
-5.417 -7.6108 -0.3952 1 132 78 186
-5.4418 -7.6051 -0.3956 1 132 78 186
-4.816 -7.7333 -0.3966 1 132 78 186
-4.8279 -7.7306 -0.3976 1 132 78 186
-4.8746 -7.7188 -0.3971 1 132 78 186
-4.8865 -7.7162 -0.399 1 132 78 186
-4.8991 -7.7146 -0.3967 1 132 78 186
-4.91 -7.7103 -0.3988 1 132 78 186
-4.9219 -7.7076 -0.4001 1 132 78 186
-4.9346 -7.7062 -0.3992 1 132 78 186
-4.947 -7.7041 -0.4003 1 132 78 186
-4.9594 -7.7021 -0.3976 1 132 78 186
-4.9698 -7.6971 -0.4009 1 132 78 186
-4.9821 -7.6949 -0.399 1 132 78 186
-4.9958 -7.6949 -0.3976 1 132 78 186
-5.0099 -7.6954 -0.402 1 132 78 186
-5.0227 -7.6939 -0.3997 1 132 78 186
-5.0327 -7.6881 -0.4023 1 132 78 186
-5.0453 -7.6862 -0.4005 1 132 78 186
-5.0568 -7.6827 -0.3992 1 132 78 186
-5.0703 -7.6821 -0.4007 1 132 78 186
-5.082 -7.6788 -0.4011 1 132 78 186
-5.0954 -7.6782 -0.4017 1 132 78 186
-5.1077 -7.6757 -0.4022 1 132 78 186
-5.1206 -7.6742 -0.401 1 132 78 186
-5.1339 -7.6732 -0.4022 1 132 78 186
-5.144 -7.6674 -0.4031 1 132 78 186
-5.1571 -7.6661 -0.4028 1 132 78 186
-5.1681 -7.6616 -0.4035 1 132 78 186
-5.1813 -7.6604 -0.4029 1 132 78 186
-5.1934 -7.6575 -0.4036 1 132 78 186
-5.2066 -7.6563 -0.4048 1 132 78 186
-5.2191 -7.654 -0.4042 1 132 78 186
-5.2309 -7.6506 -0.4052 1 132 78 186
-5.2433 -7.648 -0.4037 1 132 78 186
-5.2553 -7.645 -0.4059 1 132 78 186
-5.2671 -7.6415 -0.4028 1 132 78 186
-5.281 -7.6411 -0.4058 1 132 78 186
-5.2943 -7.6398 -0.404 1 132 78 186
-5.3065 -7.6369 -0.4054 1 132 78 186
-4.8208 -7.741 -0.4085 1 132 78 186
-4.8288 -7.7321 -0.4092 1 132 78 186
-4.8769 -7.7225 -0.4088 1 132 78 186
-4.8877 -7.718 -0.4106 1 132 78 186
-4.8982 -7.7132 -0.4078 1 132 78 186
-4.9112 -7.7122 -0.4104 1 132 78 186
-4.9216 -7.7072 -0.4116 1 132 78 186
-4.935 -7.7068 -0.4105 1 132 78 186
-4.9467 -7.7037 -0.4121 1 132 78 186
-4.9586 -7.7009 -0.4094 1 132 78 186
-4.97 -7.6973 -0.4124 1 132 78 186
-4.982 -7.6948 -0.4106 1 132 78 186
-4.9933 -7.691 -0.409 1 132 78 186
-5.0073 -7.6913 -0.4134 1 132 78 186
-5.0211 -7.6914 -0.4108 1 132 78 186
-5.0319 -7.6869 -0.4135 1 132 78 186
-5.0437 -7.6837 -0.412 1 132 78 186
-5.0563 -7.6818 -0.4108 1 132 78 186
-5.0698 -7.6813 -0.4119 1 132 78 186
-5.0825 -7.6795 -0.4125 1 132 78 186
-5.0945 -7.6767 -0.413 1 132 78 186
-5.1049 -7.6715 -0.4136 1 132 78 186
-5.1179 -7.6701 -0.4121 1 132 78 186
-5.1309 -7.6687 -0.4136 1 132 78 186
-5.1425 -7.6651 -0.4143 1 132 78 186
-5.1558 -7.6642 -0.4146 1 132 78 186
-5.1673 -7.6604 -0.415 1 132 78 186
-5.1795 -7.6577 -0.4144 1 132 78 186
-5.1919 -7.6553 -0.4152 1 132 78 186
-5.2031 -7.6511 -0.4162 1 132 78 186
-5.2172 -7.6511 -0.416 1 132 78 186
-5.2287 -7.6474 -0.417 1 132 78 186
-5.2415 -7.6455 -0.4155 1 132 78 186
-5.2544 -7.6436 -0.4175 1 132 78 186
-5.2668 -7.6411 -0.4145 1 132 78 186
-5.2794 -7.6388 -0.4174 1 132 78 186
-5.2927 -7.6375 -0.4156 1 132 78 186
-5.3044 -7.6339 -0.417 1 132 78 186
-5.3417 -7.6261 -0.4188 1 132 78 186
-5.3547 -7.6242 -0.4173 1 132 78 186
-5.3665 -7.6206 -0.4166 1 132 78 186
-5.379 -7.618 -0.4174 1 132 78 186
-5.3911 -7.6148 -0.4176 1 132 78 186
-5.4037 -7.6122 -0.4178 1 132 78 186
-5.4167 -7.6104 -0.4187 1 132 78 186
-5.4287 -7.6069 -0.4189 1 132 78 186
-4.8165 -7.7341 -0.4196 1 132 78 186
-4.8283 -7.7313 -0.4206 1 132 78 186
-4.8858 -7.7151 -0.422 1 132 78 186
-4.8988 -7.7141 -0.4197 1 132 78 186
-4.9092 -7.7091 -0.4217 1 132 78 186
-4.9225 -7.7085 -0.4232 1 132 78 186
-4.9348 -7.7065 -0.4223 1 132 78 186
-4.9472 -7.7045 -0.4234 1 132 78 186
-4.9589 -7.7014 -0.4207 1 132 78 186
-4.9707 -7.6984 -0.424 1 132 78 186
-4.9823 -7.6952 -0.4222 1 132 78 186
-4.9937 -7.6916 -0.4206 1 132 78 186
-5.0062 -7.6896 -0.4249 1 132 78 186
-5.0187 -7.6877 -0.4225 1 132 78 186
-5.0312 -7.6857 -0.4253 1 132 78 186
-5.0434 -7.6833 -0.4235 1 132 78 186
-5.0565 -7.6822 -0.4224 1 132 78 186
-5.0702 -7.682 -0.4239 1 132 78 186
-5.0811 -7.6775 -0.4243 1 132 78 186
-5.0933 -7.675 -0.4248 1 132 78 186
-5.1049 -7.6714 -0.4252 1 132 78 186
-5.1178 -7.6699 -0.424 1 132 78 186
-5.1297 -7.6669 -0.4251 1 132 78 186
-5.1415 -7.6637 -0.4259 1 132 78 186
-5.155 -7.6629 -0.4259 1 132 78 186
-5.1679 -7.6612 -0.4267 1 132 78 186
-5.1794 -7.6576 -0.4257 1 132 78 186
-5.192 -7.6555 -0.4268 1 132 78 186
-5.2044 -7.653 -0.4279 1 132 78 186
-5.2168 -7.6505 -0.4273 1 132 78 186
-5.2295 -7.6484 -0.4284 1 132 78 186
-5.2416 -7.6456 -0.4269 1 132 78 186
-5.2541 -7.6432 -0.4292 1 132 78 186
-5.267 -7.6414 -0.4262 1 132 78 186
-5.2796 -7.6391 -0.4291 1 132 78 186
-5.2917 -7.636 -0.4272 1 132 78 186
-5.3046 -7.6342 -0.4287 1 132 78 186
-5.3296 -7.6291 -0.428 1 132 78 186
-5.3416 -7.6258 -0.4305 1 132 78 186
-5.354 -7.6232 -0.429 1 132 78 186
-5.3662 -7.6202 -0.4283 1 132 78 186
-5.3788 -7.6177 -0.4294 1 132 78 186
-5.391 -7.6146 -0.4296 1 132 78 186
-5.403 -7.6113 -0.4295 1 132 78 186
-5.4167 -7.6104 -0.4305 1 132 78 186
-5.4285 -7.6067 -0.4306 1 132 78 186
-4.8162 -7.7336 -0.431 1 132 78 186
-4.8269 -7.729 -0.432 1 132 78 186
-4.8739 -7.7177 -0.4316 1 132 78 186
-4.8853 -7.7143 -0.4334 1 132 78 186
-4.8976 -7.7123 -0.4308 1 132 78 186
-4.9091 -7.709 -0.4332 1 132 78 186
-4.9225 -7.7086 -0.4347 1 132 78 186
-4.9344 -7.7058 -0.4335 1 132 78 186
-4.9466 -7.7036 -0.4351 1 132 78 186
-4.9584 -7.7006 -0.4324 1 132 78 186
-4.9701 -7.6975 -0.4355 1 132 78 186
-4.9814 -7.6937 -0.4333 1 132 78 186
-4.9947 -7.6931 -0.4322 1 132 78 186
-5.0052 -7.6881 -0.4366 1 132 78 186
-5.019 -7.6881 -0.4338 1 132 78 186
-5.0313 -7.6858 -0.4366 1 132 78 186
-5.0435 -7.6834 -0.4351 1 132 78 186
-5.0571 -7.6831 -0.434 1 132 78 186
-5.0697 -7.6811 -0.4351 1 132 78 186
-5.0803 -7.6763 -0.4355 1 132 78 186
-5.091 -7.6714 -0.4359 1 132 78 186
-5.103 -7.6687 -0.4367 1 132 78 186
-5.1178 -7.6699 -0.4354 1 132 78 186
-5.1303 -7.6678 -0.4368 1 132 78 186
-5.1425 -7.6651 -0.4376 1 132 78 186
-5.1541 -7.6616 -0.4377 1 132 78 186
-5.1664 -7.659 -0.4382 1 132 78 186
-5.1796 -7.6579 -0.4374 1 132 78 186
-5.192 -7.6554 -0.4385 1 132 78 186
-5.2046 -7.6533 -0.4396 1 132 78 186
-5.2171 -7.651 -0.439 1 132 78 186
-5.229 -7.6478 -0.4403 1 132 78 186
-5.243 -7.6476 -0.439 1 132 78 186
-5.2545 -7.6438 -0.4406 1 132 78 186
-5.2662 -7.6402 -0.4378 1 132 78 186
-5.2796 -7.6391 -0.4408 1 132 78 186
-5.2917 -7.6361 -0.4389 1 132 78 186
-5.3044 -7.6339 -0.4404 1 132 78 186
-5.3414 -7.6256 -0.4422 1 132 78 186
-5.3538 -7.623 -0.4407 1 132 78 186
-5.3666 -7.6207 -0.4401 1 132 78 186
-5.3787 -7.6176 -0.4409 1 132 78 186
-5.3914 -7.6152 -0.4411 1 132 78 186
-5.4045 -7.6135 -0.4414 1 132 78 186
-5.4155 -7.6087 -0.4421 1 132 78 186
-5.4293 -7.6077 -0.4425 1 132 78 186
-4.8149 -7.7315 -0.4424 1 132 78 186
-4.826 -7.7276 -0.4434 1 132 78 186
-4.8735 -7.717 -0.443 1 132 78 186
-4.8845 -7.713 -0.4449 1 132 78 186
-4.8977 -7.7124 -0.4426 1 132 78 186
-4.9094 -7.7093 -0.4448 1 132 78 186
-4.922 -7.7077 -0.4462 1 132 78 186
-4.9336 -7.7045 -0.4449 1 132 78 186
-4.9459 -7.7024 -0.4463 1 132 78 186
-4.9578 -7.6998 -0.4436 1 132 78 186
-4.9702 -7.6977 -0.4471 1 132 78 186
-4.9819 -7.6946 -0.4452 1 132 78 186
-4.9948 -7.6932 -0.4438 1 132 78 186
-5.0062 -7.6897 -0.448 1 132 78 186
-5.0195 -7.689 -0.4457 1 132 78 186
-5.0302 -7.6842 -0.4484 1 132 78 186
-5.0426 -7.6821 -0.4466 1 132 78 186
-5.0554 -7.6805 -0.4454 1 132 78 186
-5.0689 -7.6799 -0.4466 1 132 78 186
-5.08 -7.6758 -0.4471 1 132 78 186
-5.0921 -7.6731 -0.4476 1 132 78 186
-5.1046 -7.6709 -0.4484 1 132 78 186
-5.1188 -7.6715 -0.4473 1 132 78 186
-5.1298 -7.6671 -0.4483 1 132 78 186
-5.1425 -7.6651 -0.4492 1 132 78 186
-5.1541 -7.6615 -0.4491 1 132 78 186
-5.1669 -7.6597 -0.4499 1 132 78 186
-5.1794 -7.6576 -0.449 1 132 78 186
-5.192 -7.6554 -0.4501 1 132 78 186
-5.2047 -7.6534 -0.4513 1 132 78 186
-5.2173 -7.6513 -0.4507 1 132 78 186
-5.2297 -7.6488 -0.4518 1 132 78 186
-5.2428 -7.6474 -0.4503 1 132 78 186
-5.2541 -7.6432 -0.4525 1 132 78 186
-5.2672 -7.6417 -0.4496 1 132 78 186
-5.2797 -7.6392 -0.4522 1 132 78 186
-5.2918 -7.6361 -0.4507 1 132 78 186
-5.3041 -7.6334 -0.4521 1 132 78 186
-5.3409 -7.6249 -0.4539 1 132 78 186
-5.353 -7.6217 -0.4521 1 132 78 186
-5.3658 -7.6196 -0.4515 1 132 78 186
-5.3772 -7.6154 -0.4528 1 132 78 186
-5.3912 -7.6149 -0.4532 1 132 78 186
-5.4283 -7.6064 -0.4542 1 132 78 186
-5.4412 -7.6042 -0.4547 1 132 78 186
-4.8151 -7.7317 -0.4539 1 132 78 186
-4.8257 -7.7272 -0.4548 1 132 78 186
-4.8837 -7.7117 -0.4563 1 132 78 186
-4.8955 -7.7089 -0.4536 1 132 78 186
-4.9088 -7.7084 -0.4562 1 132 78 186
-4.9219 -7.7077 -0.4577 1 132 78 186
-4.9339 -7.7051 -0.4565 1 132 78 186
-4.9463 -7.703 -0.4579 1 132 78 186
-4.9581 -7.7001 -0.4555 1 132 78 186
-4.9704 -7.6979 -0.4586 1 132 78 186
-4.982 -7.6947 -0.4565 1 132 78 186
-4.9943 -7.6924 -0.4553 1 132 78 186
-5.0081 -7.6925 -0.4597 1 132 78 186
-5.019 -7.6881 -0.4569 1 132 78 186
-5.0299 -7.6837 -0.4596 1 132 78 186
-5.0417 -7.6807 -0.4581 1 132 78 186
-5.0541 -7.6785 -0.4569 1 132 78 186
-5.0681 -7.6787 -0.4582 1 132 78 186
-5.0803 -7.6763 -0.4587 1 132 78 186
-5.0922 -7.6732 -0.4592 1 132 78 186
-5.1055 -7.6724 -0.4601 1 132 78 186
-5.1183 -7.6706 -0.4586 1 132 78 186
-5.1297 -7.6668 -0.4599 1 132 78 186
-5.1435 -7.6667 -0.4609 1 132 78 186
-5.1545 -7.6622 -0.4607 1 132 78 186
-5.1669 -7.6598 -0.4616 1 132 78 186
-5.179 -7.657 -0.4609 1 132 78 186
-5.1929 -7.6568 -0.4619 1 132 78 186
-5.2042 -7.6527 -0.4629 1 132 78 186
-5.2178 -7.652 -0.4627 1 132 78 186
-5.23 -7.6492 -0.4638 1 132 78 186
-5.2419 -7.646 -0.4622 1 132 78 186
-5.2562 -7.6462 -0.4641 1 132 78 186
-5.2692 -7.6446 -0.4615 1 132 78 186
-5.2801 -7.6398 -0.4642 1 132 78 186
-5.292 -7.6364 -0.4624 1 132 78 186
-5.3044 -7.6339 -0.4638 1 132 78 186
-5.3413 -7.6254 -0.4657 1 132 78 186
-5.3537 -7.6228 -0.4642 1 132 78 186
-5.3657 -7.6194 -0.4635 1 132 78 186
-5.3777 -7.6161 -0.4643 1 132 78 186
-5.3906 -7.614 -0.4646 1 132 78 186
-5.4159 -7.6091 -0.4657 1 132 78 186
-5.4283 -7.6063 -0.4659 1 132 78 186
-4.8148 -7.7312 -0.4653 1 132 78 186
-4.8266 -7.7286 -0.4664 1 132 78 186
-4.8729 -7.7161 -0.4659 1 132 78 186
-4.8849 -7.7136 -0.4679 1 132 78 186
-4.8966 -7.7107 -0.4652 1 132 78 186
-4.9086 -7.7081 -0.4677 1 132 78 186
-4.9208 -7.7058 -0.4691 1 132 78 186
-4.9334 -7.7043 -0.468 1 132 78 186
-4.946 -7.7025 -0.4694 1 132 78 186
-4.9582 -7.7002 -0.4667 1 132 78 186
-4.9689 -7.6956 -0.47 1 132 78 186
-4.9815 -7.6939 -0.4683 1 132 78 186
-4.9942 -7.6924 -0.4668 1 132 78 186
-5.0067 -7.6903 -0.4711 1 132 78 186
-5.0198 -7.6894 -0.4689 1 132 78 186
-5.0314 -7.686 -0.4716 1 132 78 186
-5.0417 -7.6806 -0.4697 1 132 78 186
-5.0548 -7.6795 -0.4685 1 132 78 186
-5.0681 -7.6788 -0.4698 1 132 78 186
-5.079 -7.6743 -0.4702 1 132 78 186
-5.0912 -7.6717 -0.4707 1 132 78 186
-5.1043 -7.6705 -0.4716 1 132 78 186
-5.1179 -7.6701 -0.4705 1 132 78 186
-5.1298 -7.6669 -0.4716 1 132 78 186
-5.1424 -7.665 -0.4724 1 132 78 186
-5.1554 -7.6635 -0.4725 1 132 78 186
-5.1679 -7.6613 -0.4733 1 132 78 186
-5.1795 -7.6578 -0.4723 1 132 78 186
-5.1918 -7.6552 -0.4734 1 132 78 186
-5.2049 -7.6537 -0.4746 1 132 78 186
-5.2177 -7.6518 -0.474 1 132 78 186
-5.2298 -7.6489 -0.4751 1 132 78 186
-5.2418 -7.6458 -0.4736 1 132 78 186
-5.2551 -7.6447 -0.476 1 132 78 186
-5.2678 -7.6425 -0.4731 1 132 78 186
-5.2807 -7.6406 -0.4757 1 132 78 186
-5.2929 -7.6377 -0.4742 1 132 78 186
-5.3056 -7.6355 -0.4756 1 132 78 186
-5.3541 -7.6233 -0.4759 1 132 78 186
-5.3671 -7.6214 -0.4754 1 132 78 186
-5.3793 -7.6184 -0.4762 1 132 78 186
-5.3913 -7.6151 -0.4764 1 132 78 186
-5.4284 -7.6065 -0.4777 1 132 78 186
-5.4415 -7.6046 -0.4783 1 132 78 186
-4.8147 -7.7311 -0.4765 1 132 78 186
-4.8278 -7.7305 -0.4777 1 132 78 186
-4.8741 -7.7181 -0.4776 1 132 78 186
-4.8876 -7.718 -0.4797 1 132 78 186
-4.8985 -7.7137 -0.4769 1 132 78 186
-4.9101 -7.7104 -0.4794 1 132 78 186
-4.9217 -7.7073 -0.4807 1 132 78 186
-4.934 -7.7053 -0.4796 1 132 78 186
-4.9474 -7.7048 -0.4811 1 132 78 186
-4.9578 -7.6996 -0.4785 1 132 78 186
-4.9691 -7.696 -0.4816 1 132 78 186
-4.9812 -7.6934 -0.4795 1 132 78 186
-4.9931 -7.6907 -0.4783 1 132 78 186
-5.0057 -7.6888 -0.4829 1 132 78 186
-5.0188 -7.6878 -0.48 1 132 78 186
-5.0293 -7.6829 -0.4827 1 132 78 186
-5.0414 -7.6801 -0.4812 1 132 78 186
-5.0541 -7.6784 -0.4801 1 132 78 186
-5.0669 -7.6769 -0.4812 1 132 78 186
-5.0792 -7.6745 -0.4818 1 132 78 186
-5.0914 -7.672 -0.4823 1 132 78 186
-5.1034 -7.6692 -0.4831 1 132 78 186
-5.1166 -7.6681 -0.4817 1 132 78 186
-5.1289 -7.6657 -0.4831 1 132 78 186
-5.1425 -7.6651 -0.4841 1 132 78 186
-5.1546 -7.6624 -0.484 1 132 78 186
-5.1668 -7.6597 -0.4848 1 132 78 186
-5.1784 -7.656 -0.4839 1 132 78 186
-5.1911 -7.6541 -0.485 1 132 78 186
-5.2059 -7.6552 -0.4864 1 132 78 186
-5.2175 -7.6515 -0.4857 1 132 78 186
-5.2309 -7.6505 -0.4872 1 132 78 186
-5.2442 -7.6494 -0.4855 1 132 78 186
-5.2562 -7.6462 -0.4875 1 132 78 186
-5.2683 -7.6432 -0.4845 1 132 78 186
-5.2808 -7.6407 -0.4877 1 132 78 186
-5.3059 -7.636 -0.4874 1 132 78 186
-5.3183 -7.6333 -0.4861 1 132 78 186
-5.3408 -7.6247 -0.4891 1 132 78 186
-5.392 -7.616 -0.4882 1 132 78 186
-5.4269 -7.6043 -0.4894 1 132 78 186
-5.4386 -7.6005 -0.4895 1 132 78 186
-5.4514 -7.5982 -0.4898 1 132 78 186
-5.4645 -7.5964 -0.4899 1 132 78 186
-5.4762 -7.5925 -0.4909 1 132 78 186
-5.4892 -7.5903 -0.491 1 132 78 186
-4.8156 -7.7325 -0.4884 1 132 78 186
-4.8285 -7.7316 -0.4895 1 132 78 186
-4.8746 -7.7188 -0.4891 1 132 78 186
-4.8862 -7.7157 -0.491 1 132 78 186
-4.8987 -7.7139 -0.4884 1 132 78 186
-4.9102 -7.7106 -0.4909 1 132 78 186
-4.9233 -7.7097 -0.4924 1 132 78 186
-4.9339 -7.7051 -0.4911 1 132 78 186
-4.9467 -7.7037 -0.4925 1 132 78 186
-4.9583 -7.7004 -0.4898 1 132 78 186
-4.9704 -7.698 -0.4933 1 132 78 186
-4.9821 -7.6948 -0.4914 1 132 78 186
-4.9938 -7.6917 -0.4896 1 132 78 186
-5.0062 -7.6896 -0.4942 1 132 78 186
-5.0182 -7.6869 -0.4916 1 132 78 186
-5.0304 -7.6844 -0.4947 1 132 78 186
-5.0416 -7.6805 -0.4928 1 132 78 186
-5.0541 -7.6785 -0.4917 1 132 78 186
-5.0659 -7.6754 -0.4927 1 132 78 186
-5.0791 -7.6744 -0.4934 1 132 78 186
-5.091 -7.6715 -0.4939 1 132 78 186
-5.1025 -7.6678 -0.4946 1 132 78 186
-5.1164 -7.6678 -0.4936 1 132 78 186
-5.1278 -7.664 -0.4946 1 132 78 186
-5.1422 -7.6646 -0.4957 1 132 78 186
-5.1568 -7.6655 -0.4959 1 132 78 186
-5.1688 -7.6626 -0.4967 1 132 78 186
-5.1801 -7.6586 -0.4957 1 132 78 186
-5.1913 -7.6543 -0.4967 1 132 78 186
-5.206 -7.6553 -0.4981 1 132 78 186
-5.2167 -7.6504 -0.4973 1 132 78 186
-5.229 -7.6477 -0.4984 1 132 78 186
-5.243 -7.6475 -0.4971 1 132 78 186
-5.2691 -7.6444 -0.4966 1 132 78 186
-5.279 -7.6381 -0.4989 1 132 78 186
-5.2907 -7.6346 -0.4974 1 132 78 186
-5.3038 -7.633 -0.4989 1 132 78 186
-5.3164 -7.6306 -0.498 1 132 78 186
-5.3533 -7.6222 -0.499 1 132 78 186
-5.366 -7.6198 -0.4984 1 132 78 186
-5.391 -7.6146 -0.4999 1 132 78 186
-5.4249 -7.6016 -0.5009 1 132 78 186
-5.4383 -7.6001 -0.5016 1 132 78 186
-5.4508 -7.5974 -0.5016 1 132 78 186
-5.4631 -7.5944 -0.5018 1 132 78 186
-5.4757 -7.5918 -0.5027 1 132 78 186
-5.4888 -7.5898 -0.5027 1 132 78 186
-5.5016 -7.5874 -0.5036 1 132 78 186
-4.8152 -7.732 -0.4995 1 132 78 186
-4.827 -7.7292 -0.5006 1 132 78 186
-4.8738 -7.7175 -0.5005 1 132 78 186
-4.8872 -7.7172 -0.5027 1 132 78 186
-4.8989 -7.7142 -0.5 1 132 78 186
-4.9114 -7.7125 -0.5026 1 132 78 186
-4.9222 -7.708 -0.5038 1 132 78 186
-4.9359 -7.7081 -0.5028 1 132 78 186
-4.9471 -7.7043 -0.5041 1 132 78 186
-4.9598 -7.7027 -0.5018 1 132 78 186
-4.971 -7.6988 -0.5049 1 132 78 186
-4.9825 -7.6954 -0.5027 1 132 78 186
-4.9939 -7.6919 -0.5015 1 132 78 186
-5.0055 -7.6886 -0.5057 1 132 78 186
-5.0191 -7.6882 -0.5032 1 132 78 186
-5.0317 -7.6864 -0.5061 1 132 78 186
-5.0436 -7.6835 -0.5046 1 132 78 186
-5.0551 -7.68 -0.5033 1 132 78 186
-5.0663 -7.676 -0.5044 1 132 78 186
-5.0784 -7.6733 -0.5049 1 132 78 186
-5.0906 -7.6708 -0.5054 1 132 78 186
-5.1021 -7.6673 -0.5062 1 132 78 186
-5.1164 -7.6678 -0.5049 1 132 78 186
-5.1294 -7.6664 -0.5064 1 132 78 186
-5.1411 -7.663 -0.5072 1 132 78 186
-5.156 -7.6643 -0.5074 1 132 78 186
-5.17 -7.6644 -0.5084 1 132 78 186
-5.1821 -7.6615 -0.5075 1 132 78 186
-5.192 -7.6554 -0.5084 1 132 78 186
-5.2049 -7.6538 -0.5096 1 132 78 186
-5.2168 -7.6505 -0.509 1 132 78 186
-5.229 -7.6477 -0.5101 1 132 78 186
-5.243 -7.6476 -0.5088 1 132 78 186
-5.2684 -7.6433 -0.5079 1 132 78 186
-5.2793 -7.6386 -0.511 1 132 78 186
-5.2906 -7.6345 -0.5091 1 132 78 186
-5.3036 -7.6327 -0.5106 1 132 78 186
-5.3165 -7.6308 -0.5094 1 132 78 186
-5.3534 -7.6222 -0.5111 1 132 78 186
-5.3909 -7.6144 -0.5116 1 132 78 186
-5.4252 -7.6019 -0.5127 1 132 78 186
-5.4371 -7.5985 -0.513 1 132 78 186
-5.4508 -7.5973 -0.5134 1 132 78 186
-5.4631 -7.5944 -0.5133 1 132 78 186
-5.4759 -7.592 -0.5145 1 132 78 186
-5.4884 -7.5892 -0.5145 1 132 78 186
-4.814 -7.7301 -0.5112 1 132 78 186
-4.8269 -7.7291 -0.5124 1 132 78 186
-4.8737 -7.7173 -0.512 1 132 78 186
-4.8871 -7.7171 -0.5139 1 132 78 186
-4.8991 -7.7145 -0.5115 1 132 78 186
-4.9108 -7.7115 -0.514 1 132 78 186
-4.9229 -7.7091 -0.5154 1 132 78 186
-4.9343 -7.7056 -0.5142 1 132 78 186
-4.947 -7.7041 -0.5156 1 132 78 186
-4.9596 -7.7024 -0.5131 1 132 78 186
-4.9705 -7.6981 -0.5164 1 132 78 186
-4.9832 -7.6965 -0.5147 1 132 78 186
-4.9945 -7.6927 -0.5131 1 132 78 186
-5.0074 -7.6915 -0.5175 1 132 78 186
-5.0192 -7.6885 -0.5148 1 132 78 186
-5.0318 -7.6866 -0.5177 1 132 78 186
-5.0448 -7.6853 -0.5163 1 132 78 186
-5.0555 -7.6805 -0.515 1 132 78 186
-5.0673 -7.6775 -0.5161 1 132 78 186
-5.0785 -7.6735 -0.5165 1 132 78 186
-5.0894 -7.6689 -0.5169 1 132 78 186
-5.1022 -7.6673 -0.5178 1 132 78 186
-5.1166 -7.668 -0.5169 1 132 78 186
-5.1292 -7.666 -0.518 1 132 78 186
-5.1423 -7.6648 -0.519 1 132 78 186
-5.1568 -7.6655 -0.5192 1 132 78 186
-5.1694 -7.6635 -0.52 1 132 78 186
-5.1813 -7.6604 -0.5191 1 132 78 186
-5.1929 -7.6567 -0.5202 1 132 78 186
-5.2047 -7.6535 -0.5213 1 132 78 186
-5.2162 -7.6496 -0.5206 1 132 78 186
-5.2304 -7.6498 -0.5222 1 132 78 186
-5.2435 -7.6484 -0.5205 1 132 78 186
-5.2567 -7.647 -0.5226 1 132 78 186
-5.2666 -7.6407 -0.5197 1 132 78 186
-5.2796 -7.6391 -0.5224 1 132 78 186
-5.2915 -7.6357 -0.5209 1 132 78 186
-5.3036 -7.6327 -0.5223 1 132 78 186
-5.3168 -7.6312 -0.5215 1 132 78 186
-5.3281 -7.6269 -0.5216 1 132 78 186
-5.3527 -7.6213 -0.5228 1 132 78 186
-5.3666 -7.6207 -0.522 1 132 78 186
-5.3918 -7.6158 -0.5235 1 132 78 186
-5.4037 -7.6123 -0.5237 1 132 78 186
-5.4135 -7.6058 -0.5243 1 132 78 186
-5.4377 -7.5993 -0.5251 1 132 78 186
-5.4512 -7.5979 -0.5252 1 132 78 186
-5.4759 -7.592 -0.5263 1 132 78 186
-5.5154 -7.5863 -0.5268 1 132 78 186
-4.8151 -7.7317 -0.5225 1 132 78 186
-4.8275 -7.73 -0.5236 1 132 78 186
-4.8753 -7.7198 -0.5237 1 132 78 186
-4.8869 -7.7168 -0.5257 1 132 78 186
-4.8986 -7.7138 -0.523 1 132 78 186
-4.9107 -7.7114 -0.5256 1 132 78 186
-4.9228 -7.709 -0.527 1 132 78 186
-4.9345 -7.706 -0.5257 1 132 78 186
-4.9466 -7.7036 -0.5272 1 132 78 186
-4.9591 -7.7016 -0.5246 1 132 78 186
-4.9715 -7.6997 -0.528 1 132 78 186
-4.9828 -7.6959 -0.5259 1 132 78 186
-4.9969 -7.6965 -0.5249 1 132 78 186
-5.0068 -7.6906 -0.5293 1 132 78 186
-5.0195 -7.6889 -0.5264 1 132 78 186
-5.0319 -7.6868 -0.5293 1 132 78 186
-5.0445 -7.685 -0.5276 1 132 78 186
-5.0555 -7.6806 -0.5266 1 132 78 186
-5.0656 -7.675 -0.5275 1 132 78 186
-5.0769 -7.6711 -0.5279 1 132 78 186
-5.0902 -7.6701 -0.5286 1 132 78 186
-5.1026 -7.6679 -0.5295 1 132 78 186
-5.1145 -7.665 -0.528 1 132 78 186
-5.1289 -7.6656 -0.5296 1 132 78 186
-5.1432 -7.6661 -0.5307 1 132 78 186
-5.1573 -7.6663 -0.5309 1 132 78 186
-5.1697 -7.6638 -0.5317 1 132 78 186
-5.1809 -7.6597 -0.5307 1 132 78 186
-5.1932 -7.6572 -0.5319 1 132 78 186
-5.2055 -7.6546 -0.533 1 132 78 186
-5.2154 -7.6485 -0.5322 1 132 78 186
-5.2293 -7.6482 -0.5335 1 132 78 186
-5.243 -7.6476 -0.5322 1 132 78 186
-5.2546 -7.6438 -0.5341 1 132 78 186
-5.2667 -7.6409 -0.5311 1 132 78 186
-5.2793 -7.6386 -0.5344 1 132 78 186
-5.2906 -7.6345 -0.5325 1 132 78 186
-5.303 -7.6318 -0.5339 1 132 78 186
-5.3166 -7.6309 -0.5329 1 132 78 186
-5.3281 -7.627 -0.5334 1 132 78 186
-5.3663 -7.6203 -0.5337 1 132 78 186
-5.4114 -7.6028 -0.5359 1 132 78 186
-5.4244 -7.6009 -0.5362 1 132 78 186
-5.4393 -7.6016 -0.5368 1 132 78 186
-5.452 -7.5991 -0.5371 1 132 78 186
-5.4637 -7.5952 -0.537 1 132 78 186
-5.4772 -7.5938 -0.5382 1 132 78 186
-5.5024 -7.5885 -0.5391 1 132 78 186
-5.5149 -7.5856 -0.5385 1 132 78 186
-4.8149 -7.7315 -0.5342 1 132 78 186
-4.8274 -7.7299 -0.5354 1 132 78 186
-4.875 -7.7194 -0.5352 1 132 78 186
-4.886 -7.7153 -0.5371 1 132 78 186
-4.8986 -7.7138 -0.5345 1 132 78 186
-4.9112 -7.7122 -0.5371 1 132 78 186
-4.9232 -7.7096 -0.5385 1 132 78 186
-4.935 -7.7068 -0.5373 1 132 78 186
-4.9469 -7.704 -0.5387 1 132 78 186
-4.9595 -7.7022 -0.5362 1 132 78 186
-4.9708 -7.6985 -0.5395 1 132 78 186
-4.9825 -7.6954 -0.5377 1 132 78 186
-4.9981 -7.6982 -0.5363 1 132 78 186
-5.0072 -7.6911 -0.5406 1 132 78 186
-5.0194 -7.6888 -0.538 1 132 78 186
-5.0319 -7.6868 -0.5409 1 132 78 186
-5.0445 -7.685 -0.5395 1 132 78 186
-5.0567 -7.6823 -0.5383 1 132 78 186
-5.0659 -7.6754 -0.5391 1 132 78 186
-5.0773 -7.6716 -0.5396 1 132 78 186
-5.0901 -7.6701 -0.5402 1 132 78 186
-5.1033 -7.669 -0.5412 1 132 78 186
-5.1145 -7.6649 -0.5396 1 132 78 186
-5.1283 -7.6647 -0.5412 1 132 78 186
-5.1444 -7.668 -0.5425 1 132 78 186
-5.1587 -7.6683 -0.5427 1 132 78 186
-5.1706 -7.6652 -0.5435 1 132 78 186
-5.1837 -7.6639 -0.5427 1 132 78 186
-5.194 -7.6583 -0.5436 1 132 78 186
-5.2042 -7.6527 -0.5446 1 132 78 186
-5.2149 -7.6478 -0.5438 1 132 78 186
-5.2294 -7.6482 -0.5452 1 132 78 186
-5.2428 -7.6473 -0.5438 1 132 78 186
-5.2552 -7.6448 -0.5459 1 132 78 186
-5.2669 -7.6412 -0.5432 1 132 78 186
-5.2785 -7.6375 -0.5457 1 132 78 186
-5.2915 -7.6357 -0.5443 1 132 78 186
-5.303 -7.6318 -0.5457 1 132 78 186
-5.3145 -7.6279 -0.5447 1 132 78 186
-5.3275 -7.6261 -0.5448 1 132 78 186
-5.4001 -7.6072 -0.5469 1 132 78 186
-5.4108 -7.6019 -0.5473 1 132 78 186
-5.4378 -7.5994 -0.5487 1 132 78 186
-5.453 -7.6004 -0.5489 1 132 78 186
-5.4642 -7.5958 -0.5488 1 132 78 186
-5.4775 -7.5942 -0.5501 1 132 78 186
-5.503 -7.5893 -0.551 1 132 78 186
-5.5149 -7.5856 -0.5504 1 132 78 186
-5.5272 -7.5825 -0.5512 1 132 78 186
-4.8142 -7.7303 -0.5453 1 132 78 186
-4.8272 -7.7296 -0.5466 1 132 78 186
-4.8751 -7.7195 -0.5467 1 132 78 186
-4.8868 -7.7166 -0.5487 1 132 78 186
-4.8988 -7.7141 -0.5461 1 132 78 186
-4.9105 -7.711 -0.5486 1 132 78 186
-4.9243 -7.7114 -0.5502 1 132 78 186
-4.9352 -7.707 -0.5489 1 132 78 186
-4.9476 -7.705 -0.5504 1 132 78 186
-4.9585 -7.7007 -0.5476 1 132 78 186
-4.9713 -7.6994 -0.5511 1 132 78 186
-4.9844 -7.6984 -0.5492 1 132 78 186
-4.9988 -7.6994 -0.5483 1 132 78 186
-5.0086 -7.6933 -0.5523 1 132 78 186
-5.0196 -7.689 -0.5496 1 132 78 186
-5.0314 -7.6859 -0.5524 1 132 78 186
-5.0444 -7.6847 -0.5508 1 132 78 186
-5.0573 -7.6833 -0.5499 1 132 78 186
-5.069 -7.68 -0.551 1 132 78 186
-5.0797 -7.6753 -0.5514 1 132 78 186
-5.0918 -7.6726 -0.552 1 132 78 186
-5.1057 -7.6725 -0.553 1 132 78 186
-5.1166 -7.6681 -0.5514 1 132 78 186
-5.1304 -7.6678 -0.5531 1 132 78 186
-5.1452 -7.6691 -0.5542 1 132 78 186
-5.1579 -7.6672 -0.5542 1 132 78 186
-5.1685 -7.6621 -0.5549 1 132 78 186
-5.1819 -7.6612 -0.5542 1 132 78 186
-5.194 -7.6583 -0.5553 1 132 78 186
-5.2048 -7.6535 -0.5563 1 132 78 186
-5.2169 -7.6506 -0.5557 1 132 78 186
-5.2306 -7.6501 -0.557 1 132 78 186
-5.2421 -7.6463 -0.5554 1 132 78 186
-5.2559 -7.6457 -0.5576 1 132 78 186
-5.2663 -7.6402 -0.5545 1 132 78 186
-5.2798 -7.6393 -0.5578 1 132 78 186
-5.2926 -7.6374 -0.5561 1 132 78 186
-5.3039 -7.6331 -0.5572 1 132 78 186
-5.3172 -7.6318 -0.5564 1 132 78 186
-5.3291 -7.6283 -0.5569 1 132 78 186
-5.39 -7.6132 -0.5586 1 132 78 186
-5.3994 -7.6062 -0.5586 1 132 78 186
-5.4238 -7.6 -0.5597 1 132 78 186
-5.4368 -7.598 -0.5601 1 132 78 186
-5.4527 -7.6 -0.5607 1 132 78 186
-5.4636 -7.595 -0.5606 1 132 78 186
-5.4768 -7.5932 -0.5618 1 132 78 186
-5.4898 -7.5912 -0.5619 1 132 78 186
-4.8182 -7.7368 -0.5576 1 132 78 186
-4.8287 -7.7319 -0.5585 1 132 78 186
-4.8764 -7.7216 -0.5584 1 132 78 186
-4.8892 -7.7203 -0.5602 1 132 78 186
-4.9031 -7.7208 -0.5581 1 132 78 186
-4.9149 -7.718 -0.5606 1 132 78 186
-4.9256 -7.7133 -0.5619 1 132 78 186
-4.9362 -7.7085 -0.5606 1 132 78 186
-4.9481 -7.7058 -0.562 1 132 78 186
-4.9606 -7.704 -0.5594 1 132 78 186
-4.9729 -7.7017 -0.5626 1 132 78 186
-4.9857 -7.7003 -0.5612 1 132 78 186
-4.9982 -7.6985 -0.5598 1 132 78 186
-5.0099 -7.6952 -0.5641 1 132 78 186
-5.0214 -7.6918 -0.5614 1 132 78 186
-5.0335 -7.6891 -0.5642 1 132 78 186
-5.0448 -7.6853 -0.5627 1 132 78 186
-5.0579 -7.6843 -0.5616 1 132 78 186
-5.0691 -7.6802 -0.5627 1 132 78 186
-5.0812 -7.6776 -0.5632 1 132 78 186
-5.093 -7.6744 -0.5638 1 132 78 186
-5.105 -7.6715 -0.5646 1 132 78 186
-5.1156 -7.6666 -0.563 1 132 78 186
-5.1284 -7.6648 -0.5645 1 132 78 186
-5.1409 -7.6627 -0.5654 1 132 78 186
-5.152 -7.6585 -0.5652 1 132 78 186
-5.1668 -7.6596 -0.5664 1 132 78 186
-5.1807 -7.6595 -0.5657 1 132 78 186
-5.1943 -7.6588 -0.567 1 132 78 186
-5.2052 -7.6542 -0.568 1 132 78 186
-5.2167 -7.6504 -0.5673 1 132 78 186
-5.2294 -7.6483 -0.5689 1 132 78 186
-5.2403 -7.6436 -0.5669 1 132 78 186
-5.2535 -7.6422 -0.5691 1 132 78 186
-5.2674 -7.6419 -0.5666 1 132 78 186
-5.2801 -7.6397 -0.5693 1 132 78 186
-5.2912 -7.6353 -0.5677 1 132 78 186
-5.3045 -7.6339 -0.5693 1 132 78 186
-5.3401 -7.6236 -0.5712 1 132 78 186
-5.3885 -7.6111 -0.5702 1 132 78 186
-5.4006 -7.6079 -0.5705 1 132 78 186
-5.4107 -7.6018 -0.5708 1 132 78 186
-5.4248 -7.6014 -0.5713 1 132 78 186
-5.437 -7.5982 -0.5719 1 132 78 186
-5.4513 -7.5981 -0.5724 1 132 78 186
-5.4638 -7.5952 -0.5724 1 132 78 186
-5.4765 -7.5928 -0.5736 1 132 78 186
-5.4891 -7.5902 -0.5736 1 132 78 186
-5.5012 -7.5868 -0.5745 1 132 78 186
-5.5273 -7.5826 -0.5749 1 132 78 186
-4.819 -7.738 -0.5689 1 132 78 186
-4.8272 -7.7295 -0.5696 1 132 78 186
-4.8762 -7.7212 -0.5699 1 132 78 186
-4.8887 -7.7196 -0.572 1 132 78 186
-4.9003 -7.7165 -0.5693 1 132 78 186
-4.9118 -7.7131 -0.5718 1 132 78 186
-4.924 -7.7108 -0.5733 1 132 78 186
-4.9371 -7.71 -0.5722 1 132 78 186
-4.9479 -7.7055 -0.5735 1 132 78 186
-4.9588 -7.7012 -0.5707 1 132 78 186
-4.9708 -7.6986 -0.5742 1 132 78 186
-4.9828 -7.6959 -0.5721 1 132 78 186
-4.9956 -7.6944 -0.5711 1 132 78 186
-5.0078 -7.692 -0.5754 1 132 78 186
-5.02 -7.6897 -0.5728 1 132 78 186
-5.032 -7.6869 -0.5757 1 132 78 186
-5.044 -7.6841 -0.5739 1 132 78 186
-5.0564 -7.6819 -0.5731 1 132 78 186
-5.0686 -7.6794 -0.5742 1 132 78 186
-5.0804 -7.6763 -0.5747 1 132 78 186
-5.0936 -7.6753 -0.5754 1 132 78 186
-5.1055 -7.6723 -0.5763 1 132 78 186
-5.1174 -7.6692 -0.5748 1 132 78 186
-5.1289 -7.6656 -0.5762 1 132 78 186
-5.1414 -7.6634 -0.5771 1 132 78 186
-5.1541 -7.6616 -0.5771 1 132 78 186
-5.1661 -7.6586 -0.578 1 132 78 186
-5.1792 -7.6572 -0.5772 1 132 78 186
-5.1957 -7.6608 -0.5788 1 132 78 186
-5.2035 -7.6517 -0.5795 1 132 78 186
-5.2174 -7.6514 -0.5791 1 132 78 186
-5.2294 -7.6483 -0.5802 1 132 78 186
-5.2414 -7.6453 -0.5788 1 132 78 186
-5.255 -7.6444 -0.5809 1 132 78 186
-5.2668 -7.6409 -0.578 1 132 78 186
-5.2792 -7.6384 -0.5812 1 132 78 186
-5.2901 -7.6337 -0.5793 1 132 78 186
-5.3035 -7.6325 -0.5806 1 132 78 186
-5.3299 -7.6295 -0.5805 1 132 78 186
-5.3398 -7.6233 -0.5829 1 132 78 186
-5.3662 -7.6202 -0.5807 1 132 78 186
-5.379 -7.6178 -0.582 1 132 78 186
-5.4256 -7.6025 -0.5835 1 132 78 186
-5.4497 -7.5958 -0.584 1 132 78 186
-5.5271 -7.5823 -0.5867 1 132 78 186
-5.5401 -7.5802 -0.588 1 132 78 186
-4.8144 -7.7306 -0.5801 1 132 78 186
-4.826 -7.7276 -0.5812 1 132 78 186
-4.8755 -7.7201 -0.5813 1 132 78 186
-4.8875 -7.7176 -0.583 1 132 78 186
-4.8994 -7.715 -0.5807 1 132 78 186
-4.9122 -7.7136 -0.5834 1 132 78 186
-4.9242 -7.7111 -0.5848 1 132 78 186
-4.9354 -7.7073 -0.5836 1 132 78 186
-4.9473 -7.7046 -0.585 1 132 78 186
-4.9603 -7.7036 -0.5825 1 132 78 186
-4.9717 -7.6999 -0.5859 1 132 78 186
-4.9833 -7.6966 -0.5841 1 132 78 186
-4.9957 -7.6945 -0.5824 1 132 78 186
-5.0088 -7.6936 -0.5871 1 132 78 186
-5.0205 -7.6904 -0.5844 1 132 78 186
-5.0324 -7.6875 -0.5873 1 132 78 186
-5.044 -7.6841 -0.5855 1 132 78 186
-5.0564 -7.6819 -0.5847 1 132 78 186
-5.0689 -7.6799 -0.5859 1 132 78 186
-5.08 -7.6756 -0.5863 1 132 78 186
-5.0929 -7.6743 -0.587 1 132 78 186
-5.1055 -7.6722 -0.5879 1 132 78 186
-5.1174 -7.6692 -0.5864 1 132 78 186
-5.1305 -7.6679 -0.588 1 132 78 186
-5.1438 -7.667 -0.589 1 132 78 186
-5.1552 -7.6632 -0.5889 1 132 78 186
-5.1672 -7.6602 -0.5897 1 132 78 186
-5.1789 -7.6568 -0.5888 1 132 78 186
-5.2057 -7.6548 -0.5914 1 132 78 186
-5.2171 -7.6509 -0.5908 1 132 78 186
-5.2296 -7.6485 -0.592 1 132 78 186
-5.2402 -7.6435 -0.5903 1 132 78 186
-5.2556 -7.6452 -0.5927 1 132 78 186
-5.2675 -7.642 -0.5901 1 132 78 186
-5.2773 -7.6357 -0.5924 1 132 78 186
-5.2912 -7.6352 -0.5911 1 132 78 186
-5.3022 -7.6306 -0.5925 1 132 78 186
-5.3172 -7.6317 -0.5919 1 132 78 186
-5.3298 -7.6294 -0.5922 1 132 78 186
-5.3408 -7.6247 -0.5948 1 132 78 186
-5.3603 -7.6117 -0.5918 1 132 78 186
-5.4272 -7.6048 -0.5951 1 132 78 186
-4.8153 -7.7321 -0.5914 1 132 78 186
-4.8256 -7.727 -0.5924 1 132 78 186
-4.8751 -7.7195 -0.5928 1 132 78 186
-4.8873 -7.7173 -0.5948 1 132 78 186
-4.8996 -7.7153 -0.5923 1 132 78 186
-4.9121 -7.7136 -0.5949 1 132 78 186
-4.924 -7.7109 -0.5964 1 132 78 186
-4.9386 -7.7123 -0.5955 1 132 78 186
-4.9483 -7.7061 -0.5967 1 132 78 186
-4.96 -7.7031 -0.594 1 132 78 186
-4.9718 -7.7 -0.5974 1 132 78 186
-4.9841 -7.6979 -0.5954 1 132 78 186
-4.9965 -7.6958 -0.5943 1 132 78 186
-5.0088 -7.6936 -0.5987 1 132 78 186
-5.02 -7.6896 -0.596 1 132 78 186
-5.0323 -7.6873 -0.5989 1 132 78 186
-5.0462 -7.6874 -0.5974 1 132 78 186
-5.0578 -7.684 -0.5964 1 132 78 186
-5.0689 -7.6799 -0.5975 1 132 78 186
-5.0814 -7.6778 -0.5981 1 132 78 186
-5.0934 -7.6751 -0.5987 1 132 78 186
-5.1062 -7.6733 -0.5996 1 132 78 186
-5.118 -7.6702 -0.5981 1 132 78 186
-5.13 -7.6672 -0.5996 1 132 78 186
-5.1421 -7.6644 -0.6004 1 132 78 186
-5.156 -7.6643 -0.6006 1 132 78 186
-5.1674 -7.6605 -0.6014 1 132 78 186
-5.1795 -7.6577 -0.6006 1 132 78 186
-5.2044 -7.653 -0.603 1 132 78 186
-5.2161 -7.6495 -0.6023 1 132 78 186
-5.2302 -7.6495 -0.6037 1 132 78 186
-5.2417 -7.6456 -0.6022 1 132 78 186
-5.2545 -7.6437 -0.6043 1 132 78 186
-5.2665 -7.6406 -0.6014 1 132 78 186
-5.278 -7.6367 -0.6045 1 132 78 186
-5.2915 -7.6357 -0.6026 1 132 78 186
-5.3024 -7.6309 -0.6039 1 132 78 186
-5.3147 -7.6281 -0.6031 1 132 78 186
-5.3274 -7.6259 -0.6037 1 132 78 186
-5.4274 -7.605 -0.6072 1 132 78 186
-4.8147 -7.7311 -0.6032 1 132 78 186
-4.8275 -7.73 -0.6044 1 132 78 186
-4.8754 -7.7199 -0.6041 1 132 78 186
-4.8879 -7.7183 -0.6062 1 132 78 186
-4.9003 -7.7164 -0.6039 1 132 78 186
-4.9128 -7.7146 -0.6065 1 132 78 186
-4.9254 -7.713 -0.6081 1 132 78 186
-4.9396 -7.7139 -0.6072 1 132 78 186
-4.9495 -7.708 -0.6084 1 132 78 186
-4.96 -7.703 -0.6056 1 132 78 186
-4.9721 -7.7006 -0.6088 1 132 78 186
-4.9845 -7.6984 -0.6074 1 132 78 186
-4.9964 -7.6956 -0.6056 1 132 78 186
-5.0085 -7.6931 -0.6102 1 132 78 186
-5.0216 -7.6921 -0.6078 1 132 78 186
-5.0326 -7.6877 -0.6105 1 132 78 186
-5.0456 -7.6866 -0.6092 1 132 78 186
-5.061 -7.689 -0.6084 1 132 78 186
-5.07 -7.6816 -0.6092 1 132 78 186
-5.082 -7.6788 -0.6098 1 132 78 186
-5.0943 -7.6763 -0.6104 1 132 78 186
-5.1058 -7.6728 -0.6112 1 132 78 186
-5.1186 -7.671 -0.6098 1 132 78 186
-5.1299 -7.667 -0.6112 1 132 78 186
-5.1422 -7.6646 -0.6121 1 132 78 186
-5.1555 -7.6635 -0.6122 1 132 78 186
-5.1672 -7.6602 -0.6131 1 132 78 186
-5.18 -7.6584 -0.6123 1 132 78 186
-5.2055 -7.6546 -0.6148 1 132 78 186
-5.2171 -7.651 -0.6141 1 132 78 186
-5.2293 -7.6482 -0.6153 1 132 78 186
-5.2416 -7.6455 -0.6139 1 132 78 186
-5.2551 -7.6445 -0.6161 1 132 78 186
-5.2661 -7.64 -0.6133 1 132 78 186
-5.2779 -7.6365 -0.6159 1 132 78 186
-5.2912 -7.6353 -0.6146 1 132 78 186
-5.3021 -7.6305 -0.6159 1 132 78 186
-5.3153 -7.6289 -0.6152 1 132 78 186
-5.3286 -7.6277 -0.6153 1 132 78 186
-5.342 -7.6263 -0.6184 1 132 78 186
-5.4155 -7.6085 -0.6185 1 132 78 186
-5.4275 -7.6051 -0.6187 1 132 78 186
-4.8151 -7.7317 -0.6144 1 132 78 186
-4.8278 -7.7305 -0.6157 1 132 78 186
-4.8752 -7.7197 -0.6159 1 132 78 186
-4.8877 -7.718 -0.618 1 132 78 186
-4.901 -7.7174 -0.6155 1 132 78 186
-4.9133 -7.7154 -0.6182 1 132 78 186
-4.9244 -7.7114 -0.6195 1 132 78 186
-4.936 -7.7082 -0.6183 1 132 78 186
-4.9455 -7.7017 -0.6194 1 132 78 186
-4.9591 -7.7016 -0.617 1 132 78 186
-4.9722 -7.7007 -0.6203 1 132 78 186
-4.9844 -7.6984 -0.6186 1 132 78 186
-4.9958 -7.6947 -0.6174 1 132 78 186
-5.0089 -7.6937 -0.6219 1 132 78 186
-5.0204 -7.6903 -0.6192 1 132 78 186
-5.0338 -7.6896 -0.6223 1 132 78 186
-5.0454 -7.6863 -0.6205 1 132 78 186
-5.062 -7.6904 -0.6202 1 132 78 186
-5.071 -7.6831 -0.621 1 132 78 186
-5.0828 -7.6799 -0.6215 1 132 78 186
-5.095 -7.6773 -0.6221 1 132 78 186
-5.1073 -7.675 -0.623 1 132 78 186
-5.1183 -7.6706 -0.6215 1 132 78 186
-5.1312 -7.669 -0.623 1 132 78 186
-5.1428 -7.6654 -0.6238 1 132 78 186
-5.1559 -7.6642 -0.624 1 132 78 186
-5.1677 -7.6609 -0.6248 1 132 78 186
-5.1804 -7.6589 -0.624 1 132 78 186
-5.2191 -7.6538 -0.6261 1 132 78 186
-5.2302 -7.6495 -0.6271 1 132 78 186
-5.243 -7.6475 -0.6257 1 132 78 186
-5.2548 -7.6441 -0.6278 1 132 78 186
-5.2673 -7.6416 -0.6249 1 132 78 186
-5.2795 -7.6389 -0.6281 1 132 78 186
-5.2925 -7.6371 -0.6262 1 132 78 186
-5.3031 -7.6319 -0.6275 1 132 78 186
-5.3163 -7.6304 -0.6267 1 132 78 186
-5.4019 -7.6097 -0.6295 1 132 78 186
-5.4147 -7.6074 -0.6305 1 132 78 186
-5.4269 -7.6043 -0.6308 1 132 78 186
-4.8166 -7.7341 -0.6264 1 132 78 186
-4.8275 -7.73 -0.6274 1 132 78 186
-4.8737 -7.7174 -0.6272 1 132 78 186
-4.885 -7.7137 -0.6289 1 132 78 186
-4.8977 -7.7123 -0.6266 1 132 78 186
-4.9109 -7.7117 -0.6294 1 132 78 186
-4.9211 -7.7062 -0.6306 1 132 78 186
-4.9333 -7.704 -0.6295 1 132 78 186
-4.9437 -7.6989 -0.6307 1 132 78 186
-4.9554 -7.6958 -0.6281 1 132 78 186
-4.9696 -7.6966 -0.6319 1 132 78 186
-4.9846 -7.6986 -0.6302 1 132 78 186
-4.9964 -7.6957 -0.6288 1 132 78 186
-5.0121 -7.6986 -0.6339 1 132 78 186
