-5.0188 -7.7317 7.0569 1 198 235 189
-5.031 -7.7292 7.0535 1 198 235 189
-5.0418 -7.7245 7.0605 1 198 235 189
-5.055 -7.7236 7.06 1 198 235 189
-5.0661 -7.7194 7.0665 1 198 235 189
-5.0775 -7.7155 7.0698 1 198 235 189
-5.09 -7.7134 7.0723 1 198 235 189
-5.1008 -7.7087 7.0743 1 198 235 189
-5.1128 -7.7057 7.0765 1 198 235 189
-5.1235 -7.7008 7.078 1 198 235 189
-5.1341 -7.6958 7.0807 1 198 235 189
-5.1458 -7.6924 7.082 1 198 235 189
-5.1576 -7.6891 7.0845 1 198 235 189
-5.1681 -7.6839 7.0857 1 198 235 189
-5.1796 -7.6801 7.0882 1 198 235 189
-5.1903 -7.6751 7.0906 1 198 235 189
-5.202 -7.6716 7.0915 1 198 235 189
-5.2124 -7.6662 7.0926 1 198 235 189
-5.2223 -7.6601 7.0929 1 198 235 189
-1.0841 -8.4854 6.5294 1 198 235 189
-1.1046 -8.4757 6.5233 1 198 235 189
-1.1154 -8.4759 6.5254 1 198 235 189
-1.1257 -8.4719 6.5238 1 198 235 189
-1.1353 -8.4622 6.5161 1 198 235 189
-1.1471 -8.4698 6.5252 1 198 235 189
-1.156 -8.4551 6.5125 1 198 235 189
-1.1666 -8.454 6.5135 1 198 235 189
-1.1764 -8.4484 6.5091 1 198 235 189
-1.1869 -8.4442 6.5083 1 198 235 189
-1.1976 -8.4435 6.5089 1 198 235 189
-1.2062 -8.4298 6.4974 1 198 235 189
-1.2171 -8.4284 6.4983 1 198 235 189
-1.2953 -8.4437 6.5178 1 198 235 189
-4.9841 -7.7421 7.0304 1 198 235 189
-4.9971 -7.7407 7.0294 1 198 235 189
-5.0067 -7.7343 7.0334 1 198 235 189
-5.0194 -7.7326 7.0398 1 198 235 189
-5.0314 -7.7299 7.0363 1 198 235 189
-5.0437 -7.7274 7.0448 1 198 235 189
-5.0559 -7.725 7.0433 1 198 235 189
-5.0679 -7.7221 7.0506 1 198 235 189
-5.0805 -7.72 7.0555 1 198 235 189
-5.0926 -7.7174 7.058 1 198 235 189
-5.1044 -7.7141 7.0604 1 198 235 189
-5.1162 -7.7108 7.0628 1 198 235 189
-5.1275 -7.7068 7.0651 1 198 235 189
-5.1398 -7.7043 7.07 1 198 235 189
-5.1511 -7.7003 7.0709 1 198 235 189
-5.1627 -7.6967 7.0731 1 198 235 189
-5.1741 -7.6928 7.0755 1 198 235 189
-5.1855 -7.6888 7.0778 1 198 235 189
-5.1967 -7.6846 7.0808 1 198 235 189
-5.2082 -7.6807 7.0815 1 198 235 189
-5.2189 -7.6758 7.083 1 198 235 189
-5.2309 -7.6726 7.0861 1 198 235 189
-5.2418 -7.6679 7.0874 1 198 235 189
-5.2517 -7.6617 7.0886 1 198 235 189
-5.2635 -7.6582 7.0897 1 198 235 189
-5.2846 -7.6477 7.0927 1 198 235 189
-5.0472 -7.7328 7.0314 1 198 235 189
-5.0691 -7.7239 7.0339 1 198 235 189
-5.0808 -7.7205 7.0376 1 198 235 189
-5.0934 -7.7185 7.0402 1 198 235 189
-5.105 -7.715 7.0433 1 198 235 189
-5.1171 -7.7122 7.0457 1 198 235 189
-5.1304 -7.7112 7.0512 1 198 235 189
-5.1415 -7.7068 7.0544 1 198 235 189
-5.1535 -7.7039 7.0558 1 198 235 189
-5.1657 -7.7011 7.0587 1 198 235 189
-5.1778 -7.6983 7.0621 1 198 235 189
-5.1893 -7.6944 7.0645 1 198 235 189
-5.201 -7.691 7.0683 1 198 235 189
-5.2131 -7.6879 7.0697 1 198 235 189
-5.2247 -7.6843 7.0724 1 198 235 189
-5.2354 -7.6792 7.0738 1 198 235 189
-5.2469 -7.6753 7.0762 1 198 235 189
-5.2582 -7.6713 7.0795 1 198 235 189
-5.2702 -7.668 7.0803 1 198 235 189
-5.2795 -7.6609 7.0859 1 198 235 189
-5.2922 -7.6587 7.0844 1 198 235 189
-5.3017 -7.6518 7.0888 1 198 235 189
-5.3148 -7.6502 7.0903 1 198 235 189
-5.3246 -7.6438 7.0929 1 198 235 189
-5.3481 -7.6365 7.0939 1 198 235 189
-5.1094 -7.7217 7.0311 1 198 235 189
-5.1191 -7.7153 7.0302 1 198 235 189
-5.1307 -7.7117 7.0328 1 198 235 189
-5.142 -7.7076 7.0368 1 198 235 189
-5.155 -7.7061 7.0395 1 198 235 189
-5.1673 -7.7035 7.0426 1 198 235 189
-5.1798 -7.7012 7.0464 1 198 235 189
-5.1912 -7.6973 7.0488 1 198 235 189
-5.2036 -7.6948 7.0534 1 198 235 189
-5.2153 -7.6913 7.0543 1 198 235 189
-5.2279 -7.689 7.0583 1 198 235 189
-5.2398 -7.6856 7.0612 1 198 235 189
-5.2511 -7.6815 7.0631 1 198 235 189
-5.2627 -7.6777 7.067 1 198 235 189
-5.2747 -7.6746 7.0679 1 198 235 189
-5.2852 -7.6692 7.075 1 198 235 189
-5.298 -7.6672 7.0738 1 198 235 189
-5.3084 -7.6615 7.0793 1 198 235 189
-5.3221 -7.6608 7.0811 1 198 235 189
-5.3322 -7.6547 7.0845 1 198 235 189
-5.3428 -7.6494 7.0867 1 198 235 189
-5.3557 -7.6474 7.0855 1 198 235 189
-5.3635 -7.6381 7.0878 1 198 235 189
-5.3751 -7.6342 7.0905 1 198 235 189
-5.3859 -7.6292 7.0916 1 198 235 189
-5.122 -7.7197 7.0158 1 198 235 189
-5.1347 -7.7177 7.0203 1 198 235 189
-5.1471 -7.7153 7.025 1 198 235 189
-5.1587 -7.7117 7.0262 1 198 235 189
-5.1699 -7.7074 7.0283 1 198 235 189
-5.1815 -7.7038 7.0304 1 198 235 189
-5.1933 -7.7004 7.0333 1 198 235 189
-5.2045 -7.6961 7.0367 1 198 235 189
-5.2164 -7.6929 7.0375 1 198 235 189
-5.229 -7.6906 7.0414 1 198 235 189
-5.2409 -7.6873 7.0443 1 198 235 189
-5.2532 -7.6845 7.0479 1 198 235 189
-5.2656 -7.682 7.0525 1 198 235 189
-5.2779 -7.6793 7.0538 1 198 235 189
-5.2891 -7.6749 7.0623 1 198 235 189
-5.3016 -7.6724 7.0601 1 198 235 189
-5.3131 -7.6683 7.0676 1 198 235 189
-5.3263 -7.6668 7.0687 1 198 235 189
-5.3376 -7.6625 7.0732 1 198 235 189
-5.3479 -7.6567 7.0754 1 198 235 189
-5.361 -7.655 7.0741 1 198 235 189
-5.3709 -7.6487 7.0796 1 198 235 189
-5.3825 -7.6447 7.0817 1 198 235 189
-5.3935 -7.6399 7.083 1 198 235 189
-5.4048 -7.6355 7.0857 1 198 235 189
-5.4164 -7.6316 7.0879 1 198 235 189
-5.4277 -7.6272 7.0902 1 198 235 189
-5.4394 -7.6233 7.0915 1 198 235 189
-5.1221 -7.7198 6.9981 1 198 235 189
-5.1347 -7.7176 7.0015 1 198 235 189
-5.1466 -7.7145 7.0064 1 198 235 189
-5.159 -7.7121 7.0083 1 198 235 189
-5.1713 -7.7094 7.0113 1 198 235 189
-5.1841 -7.7076 7.0155 1 198 235 189
-5.1959 -7.7042 7.0184 1 198 235 189
-5.2085 -7.7021 7.0233 1 198 235 189
-5.2205 -7.6988 7.0245 1 198 235 189
-5.2323 -7.6955 7.0275 1 198 235 189
-5.2435 -7.6911 7.0295 1 198 235 189
-5.2541 -7.6858 7.0307 1 198 235 189
-5.2659 -7.6824 7.0345 1 198 235 189
-5.2794 -7.6814 7.0374 1 198 235 189
-5.2906 -7.677 7.0458 1 198 235 189
-5.3034 -7.6749 7.0445 1 198 235 189
-5.3149 -7.6709 7.0511 1 198 235 189
-5.3288 -7.6704 7.0531 1 198 235 189
-5.3397 -7.6655 7.0575 1 198 235 189
-5.3528 -7.6638 7.0635 1 198 235 189
-5.3652 -7.661 7.0612 1 198 235 189
-5.3757 -7.6554 7.0669 1 198 235 189
-5.3882 -7.6528 7.0707 1 198 235 189
-5.3995 -7.6484 7.0724 1 198 235 189
-5.4106 -7.6437 7.0753 1 198 235 189
-5.4223 -7.6399 7.0776 1 198 235 189
-5.4345 -7.6367 7.0806 1 198 235 189
-5.4466 -7.6334 7.0824 1 198 235 189
-5.4569 -7.6276 7.0843 1 198 235 189
-5.4677 -7.6223 7.0863 1 198 235 189
-5.4789 -7.6177 7.0879 1 198 235 189
-5.4902 -7.6132 7.0892 1 198 235 189
-5.5023 -7.6098 7.092 1 198 235 189
-5.5139 -7.6057 7.0947 1 198 235 189
-1.1742 -8.4329 6.4129 1 198 235 189
-1.1955 -8.4281 6.4133 1 198 235 189
-1.2061 -8.4289 6.4129 1 198 235 189
-1.2169 -8.427 6.4131 1 198 235 189
-1.2274 -8.4245 6.4128 1 198 235 189
-1.2381 -8.4238 6.4126 1 198 235 189
-1.2484 -8.4207 6.4131 1 198 235 189
-1.2594 -8.4216 6.4125 1 198 235 189
-1.2697 -8.4185 6.4121 1 198 235 189
-1.2805 -8.4182 6.4127 1 198 235 189
-1.2917 -8.4205 6.4157 1 198 235 189
-5.1343 -7.717 6.9832 1 198 235 189
-5.147 -7.7151 6.9883 1 198 235 189
-5.1592 -7.7124 6.9903 1 198 235 189
-5.1714 -7.7097 6.9937 1 198 235 189
-5.1839 -7.7073 6.997 1 198 235 189
-5.1964 -7.705 7.0008 1 198 235 189
-5.208 -7.7013 7.0047 1 198 235 189
-5.2216 -7.7005 7.0077 1 198 235 189
-5.2337 -7.6976 7.011 1 198 235 189
-5.2462 -7.6952 7.0148 1 198 235 189
-5.2587 -7.6926 7.0186 1 198 235 189
-5.2703 -7.6889 7.0221 1 198 235 189
-5.2825 -7.686 7.0232 1 198 235 189
-5.2922 -7.6794 7.0297 1 198 235 189
-5.3053 -7.6777 7.0282 1 198 235 189
-5.3161 -7.6727 7.0343 1 198 235 189
-5.3298 -7.6718 7.0365 1 198 235 189
-5.3412 -7.6677 7.0411 1 198 235 189
-5.3537 -7.665 7.0462 1 198 235 189
-5.3675 -7.6642 7.0462 1 198 235 189
-5.3784 -7.6593 7.0525 1 198 235 189
-5.3913 -7.6573 7.0564 1 198 235 189
-5.4032 -7.6537 7.0589 1 198 235 189
-5.4149 -7.6498 7.062 1 198 235 189
-5.4273 -7.647 7.0652 1 198 235 189
-5.4392 -7.6433 7.0682 1 198 235 189
-5.451 -7.6396 7.0697 1 198 235 189
-5.4635 -7.6368 7.0739 1 198 235 189
-5.4742 -7.6314 7.0762 1 198 235 189
-5.486 -7.6276 7.0786 1 198 235 189
-5.4976 -7.6235 7.0803 1 198 235 189
-5.5094 -7.6196 7.0826 1 198 235 189
-5.5207 -7.6151 7.0848 1 198 235 189
-5.5311 -7.6094 7.0879 1 198 235 189
-5.543 -7.6055 7.0889 1 198 235 189
-5.5534 -7.5998 7.09 1 198 235 189
-5.565 -7.5956 7.0922 1 198 235 189
-1.0495 -8.4681 6.4123 1 198 235 189
-1.0599 -8.4649 6.4113 1 198 235 189
-1.0706 -8.4643 6.4119 1 198 235 189
-1.0813 -8.4635 6.4115 1 198 235 189
-1.0918 -8.4605 6.411 1 198 235 189
-1.1026 -8.4606 6.4109 1 198 235 189
-1.1131 -8.4585 6.4108 1 198 235 189
-1.1236 -8.456 6.4104 1 198 235 189
-1.1344 -8.4557 6.41 1 198 235 189
-1.1448 -8.4527 6.4109 1 198 235 189
-1.1558 -8.454 6.4108 1 198 235 189
-1.1663 -8.4516 6.4106 1 198 235 189
-1.1768 -8.4513 6.4102 1 198 235 189
-1.1877 -8.4495 6.4112 1 198 235 189
-1.1981 -8.4465 6.4105 1 198 235 189
-1.2085 -8.4457 6.409 1 198 235 189
-1.2193 -8.4434 6.4088 1 198 235 189
-1.2297 -8.4404 6.4077 1 198 235 189
-1.2403 -8.439 6.4078 1 198 235 189
-1.2508 -8.4366 6.4084 1 198 235 189
-1.2613 -8.4345 6.4059 1 198 235 189
-1.2729 -8.4392 6.4111 1 198 235 189
-1.284 -8.4412 6.4134 1 198 235 189
-1.295 -8.442 6.4153 1 198 235 189
-5.1353 -7.7185 6.9659 1 198 235 189
-5.1473 -7.7155 6.9708 1 198 235 189
-5.1599 -7.7134 6.973 1 198 235 189
-5.1717 -7.71 6.9753 1 198 235 189
-5.1841 -7.7076 6.979 1 198 235 189
-5.1961 -7.7046 6.9822 1 198 235 189
-5.2085 -7.702 6.9866 1 198 235 189
-5.2212 -7.6999 6.9889 1 198 235 189
-5.2337 -7.6975 6.9927 1 198 235 189
-5.2455 -7.694 6.9955 1 198 235 189
-5.2587 -7.6926 7.0002 1 198 235 189
-5.2708 -7.6896 7.0044 1 198 235 189
-5.2831 -7.6868 7.0056 1 198 235 189
-5.2967 -7.6858 7.0172 1 198 235 189
-5.3086 -7.6824 7.0147 1 198 235 189
-5.3212 -7.68 7.0227 1 198 235 189
-5.3335 -7.6771 7.0225 1 198 235 189
-5.344 -7.6717 7.0265 1 198 235 189
-5.355 -7.6669 7.0296 1 198 235 189
-5.3683 -7.6655 7.0285 1 198 235 189
-5.3789 -7.66 7.0343 1 198 235 189
-5.3927 -7.6592 7.0397 1 198 235 189
-5.4047 -7.6557 7.0423 1 198 235 189
-5.4168 -7.6525 7.0465 1 198 235 189
-5.4289 -7.6492 7.0493 1 198 235 189
-5.4423 -7.6477 7.0538 1 198 235 189
-5.455 -7.6451 7.0563 1 198 235 189
-5.4665 -7.6409 7.0597 1 198 235 189
-5.4788 -7.6378 7.0636 1 198 235 189
-5.4909 -7.6344 7.0664 1 198 235 189
-5.5024 -7.6302 7.0685 1 198 235 189
-5.5151 -7.6275 7.0715 1 198 235 189
-5.5265 -7.6232 7.0739 1 198 235 189
-5.5376 -7.6183 7.0776 1 198 235 189
-5.5495 -7.6145 7.0788 1 198 235 189
-5.5612 -7.6104 7.081 1 198 235 189
-5.5822 -7.599 7.0875 1 198 235 189
-5.5937 -7.5946 7.0905 1 198 235 189
-5.6071 -7.5928 7.0907 1 198 235 189
-5.6176 -7.5871 7.0905 1 198 235 189
-1.051 -8.4802 6.4047 1 198 235 189
-1.0615 -8.4775 6.4041 1 198 235 189
-1.072 -8.4752 6.4034 1 198 235 189
-1.0826 -8.473 6.4015 1 198 235 189
-1.0932 -8.4714 6.4025 1 198 235 189
-1.1038 -8.4695 6.4009 1 198 235 189
-1.1143 -8.4672 6.401 1 198 235 189
-1.1249 -8.4657 6.4014 1 198 235 189
-1.1355 -8.4639 6.3998 1 198 235 189
-1.1461 -8.4622 6.4017 1 198 235 189
-1.1567 -8.4603 6.3985 1 198 235 189
-1.1672 -8.4579 6.3986 1 198 235 189
-1.1776 -8.457 6.3978 1 198 235 189
-1.1882 -8.4536 6.3972 1 198 235 189
-1.1988 -8.4513 6.3974 1 198 235 189
-1.2088 -8.4479 6.3939 1 198 235 189
-1.2197 -8.4462 6.3941 1 198 235 189
-1.23 -8.4426 6.393 1 198 235 189
-1.2406 -8.4407 6.3924 1 198 235 189
-1.2511 -8.4385 6.3932 1 198 235 189
-1.2616 -8.4362 6.3905 1 198 235 189
-5.1469 -7.7149 6.9516 1 198 235 189
-5.1583 -7.711 6.9525 1 198 235 189
-5.1716 -7.7099 6.9574 1 198 235 189
-5.1834 -7.7066 6.9598 1 198 235 189
-5.1962 -7.7046 6.964 1 198 235 189
-5.2082 -7.7016 6.9685 1 198 235 189
-5.2202 -7.6985 6.9693 1 198 235 189
-5.2325 -7.6957 6.9732 1 198 235 189
-5.2453 -7.6937 6.977 1 198 235 189
-5.2579 -7.6915 6.9809 1 198 235 189
-5.2712 -7.6901 6.9866 1 198 235 189
-5.2829 -7.6865 6.9871 1 198 235 189
-5.2955 -7.6841 6.9973 1 198 235 189
-5.3084 -7.6821 6.9956 1 198 235 189
-5.3215 -7.6804 7.0052 1 198 235 189
-5.3335 -7.6771 7.0046 1 198 235 189
-5.3462 -7.6747 7.0109 1 198 235 189
-5.3585 -7.6719 7.0158 1 198 235 189
-5.3717 -7.6702 7.0144 1 198 235 189
-5.3836 -7.6667 7.0225 1 198 235 189
-5.3956 -7.6633 7.0252 1 198 235 189
-5.4074 -7.6596 7.0275 1 198 235 189
-5.4197 -7.6566 7.0319 1 198 235 189
-5.4304 -7.6513 7.0324 1 198 235 189
-5.4425 -7.648 7.0356 1 198 235 189
-5.4561 -7.6468 7.0394 1 198 235 189
-5.4693 -7.6449 7.0449 1 198 235 189
-5.4808 -7.6406 7.0478 1 198 235 189
-5.4934 -7.638 7.0512 1 198 235 189
-5.5058 -7.6349 7.0539 1 198 235 189
-5.5183 -7.632 7.0571 1 198 235 189
-5.5304 -7.6286 7.0604 1 198 235 189
-5.5422 -7.6247 7.065 1 198 235 189
-5.5547 -7.6216 7.0668 1 198 235 189
-5.5666 -7.6179 7.0699 1 198 235 189
-5.5891 -7.6083 7.0782 1 198 235 189
-5.6003 -7.6035 7.0803 1 198 235 189
-5.6136 -7.6017 7.0805 1 198 235 189
-5.625 -7.597 7.0813 1 198 235 189
-5.6339 -7.5891 7.0861 1 198 235 189
-5.6448 -7.5839 7.0869 1 198 235 189
-5.6555 -7.5784 7.0893 1 198 235 189
-1.0511 -8.4809 6.3885 1 198 235 189
-1.0616 -8.4782 6.3883 1 198 235 189
-1.0721 -8.4756 6.387 1 198 235 189
-1.0827 -8.474 6.3859 1 198 235 189
-1.0933 -8.4722 6.3864 1 198 235 189
-1.1039 -8.4708 6.3847 1 198 235 189
-1.1143 -8.4676 6.3846 1 198 235 189
-1.125 -8.4663 6.3847 1 198 235 189
-1.1356 -8.4648 6.3834 1 198 235 189
-1.1461 -8.4624 6.3847 1 198 235 189
-1.1567 -8.4604 6.3822 1 198 235 189
-1.1672 -8.4581 6.3821 1 198 235 189
-1.1775 -8.4563 6.3805 1 198 235 189
-1.1881 -8.4529 6.3803 1 198 235 189
-1.1985 -8.4496 6.3794 1 198 235 189
-1.2088 -8.4478 6.377 1 198 235 189
-1.2196 -8.4455 6.3769 1 198 235 189
-1.2301 -8.4433 6.3765 1 198 235 189
-1.2406 -8.4407 6.3757 1 198 235 189
-1.2509 -8.4376 6.3757 1 198 235 189
-1.2616 -8.4361 6.3737 1 198 235 189
-5.1468 -7.7147 6.9337 1 198 235 189
-5.1596 -7.713 6.9362 1 198 235 189
-5.1713 -7.7095 6.9384 1 198 235 189
-5.1839 -7.7073 6.9423 1 198 235 189
-5.196 -7.7044 6.9456 1 198 235 189
-5.2474 -7.6968 6.9615 1 198 235 189
-5.2585 -7.6923 6.9634 1 198 235 189
-5.2704 -7.689 6.9674 1 198 235 189
-5.2838 -7.6878 6.97 1 198 235 189
-5.2961 -7.6849 6.9797 1 198 235 189
-5.3082 -7.6818 6.9775 1 198 235 189
-5.3213 -7.6802 6.9862 1 198 235 189
-5.3337 -7.6775 6.9866 1 198 235 189
-5.3465 -7.6753 6.993 1 198 235 189
-5.3594 -7.6732 6.9987 1 198 235 189
-5.3705 -7.6686 6.9946 1 198 235 189
-5.3845 -7.668 7.0048 1 198 235 189
-5.3967 -7.6648 7.0081 1 198 235 189
-5.4095 -7.6626 7.0118 1 198 235 189
-5.4232 -7.6615 7.018 1 198 235 189
-5.4349 -7.6576 7.0202 1 198 235 189
-5.4465 -7.6535 7.0227 1 198 235 189
-5.4594 -7.6513 7.0251 1 198 235 189
-5.4708 -7.6469 7.0283 1 198 235 189
-5.482 -7.6422 7.0308 1 198 235 189
-5.4941 -7.6388 7.0336 1 198 235 189
-5.5065 -7.6359 7.0363 1 198 235 189
-5.5197 -7.6339 7.0404 1 198 235 189
-5.5316 -7.6301 7.0434 1 198 235 189
-5.5448 -7.6282 7.0498 1 198 235 189
-5.5569 -7.6247 7.0512 1 198 235 189
-5.5702 -7.6228 7.0554 1 198 235 189
-5.5942 -7.6153 7.0657 1 198 235 189
-5.6057 -7.6109 7.0686 1 198 235 189
-5.6178 -7.6074 7.0672 1 198 235 189
-5.6311 -7.6053 7.0705 1 198 235 189
-5.6411 -7.5989 7.0762 1 198 235 189
-5.6525 -7.5942 7.0775 1 198 235 189
-5.6627 -7.588 7.0802 1 198 235 189
-5.6755 -7.5853 7.0829 1 198 235 189
-5.6871 -7.5808 7.0846 1 198 235 189
-5.6978 -7.5753 7.0865 1 198 235 189
-5.7089 -7.5702 7.088 1 198 235 189
-1.0511 -8.4813 6.3721 1 198 235 189
-1.0617 -8.4792 6.3719 1 198 235 189
-1.0722 -8.4769 6.3712 1 198 235 189
-1.0829 -8.4753 6.3697 1 198 235 189
-1.0933 -8.4724 6.3698 1 198 235 189
-1.1038 -8.4701 6.3679 1 198 235 189
-1.1144 -8.4684 6.3685 1 198 235 189
-1.1251 -8.4668 6.3684 1 198 235 189
-1.1355 -8.4641 6.3666 1 198 235 189
-1.146 -8.4616 6.3679 1 198 235 189
-1.1567 -8.4604 6.3651 1 198 235 189
-1.1672 -8.4579 6.3656 1 198 235 189
-1.1774 -8.4554 6.3631 1 198 235 189
-1.1882 -8.4531 6.3638 1 198 235 189
-1.1985 -8.4496 6.3627 1 198 235 189
-1.2088 -8.4476 6.3602 1 198 235 189
-1.2196 -8.4454 6.3601 1 198 235 189
-1.23 -8.4423 6.3594 1 198 235 189
-1.2406 -8.441 6.3592 1 198 235 189
-1.2511 -8.4389 6.3601 1 198 235 189
-1.2617 -8.437 6.3577 1 198 235 189
-5.1469 -7.7149 6.9157 1 198 235 189
-5.1593 -7.7125 6.9176 1 198 235 189
-5.1717 -7.71 6.9207 1 198 235 189
-5.1839 -7.7073 6.9241 1 198 235 189
-5.1957 -7.7039 6.9269 1 198 235 189
-5.2101 -7.7044 6.9342 1 198 235 189
-5.2589 -7.6929 6.9457 1 198 235 189
-5.2701 -7.6886 6.9487 1 198 235 189
-5.2829 -7.6864 6.9505 1 198 235 189
-5.2964 -7.6854 6.9619 1 198 235 189
-5.3082 -7.6819 6.9588 1 198 235 189
-5.3208 -7.6795 6.9673 1 198 235 189
-5.3335 -7.6771 6.968 1 198 235 189
-5.346 -7.6745 6.974 1 198 235 189
-5.358 -7.6712 6.9785 1 198 235 189
-5.3709 -7.669 6.9772 1 198 235 189
-5.3832 -7.6661 6.9853 1 198 235 189
-5.3965 -7.6645 6.9895 1 198 235 189
-5.4094 -7.6624 6.9933 1 198 235 189
-5.4221 -7.66 6.9983 1 198 235 189
-5.435 -7.6577 7.0015 1 198 235 189
-5.448 -7.6556 7.0059 1 198 235 189
-5.4598 -7.6519 7.0073 1 198 235 189
-5.5249 -7.6411 7.0287 1 198 235 189
-5.5347 -7.6345 7.0294 1 198 235 189
-5.5459 -7.6296 7.0327 1 198 235 189
-5.5584 -7.6267 7.0346 1 198 235 189
-5.5705 -7.6232 7.0378 1 198 235 189
-5.5956 -7.6173 7.0495 1 198 235 189
-5.6087 -7.615 7.0539 1 198 235 189
-5.6213 -7.6121 7.0531 1 198 235 189
-5.6334 -7.6084 7.0549 1 198 235 189
-5.6459 -7.6053 7.0641 1 198 235 189
-5.6577 -7.6013 7.066 1 198 235 189
-5.6691 -7.5966 7.0697 1 198 235 189
-5.6809 -7.5925 7.0712 1 198 235 189
-5.6941 -7.5902 7.0747 1 198 235 189
-5.7051 -7.585 7.0775 1 198 235 189
-5.7174 -7.5814 7.0799 1 198 235 189
-5.7281 -7.5759 7.0824 1 198 235 189
-5.7395 -7.5711 7.0833 1 198 235 189
-5.7501 -7.5654 7.0847 1 198 235 189
-5.7613 -7.5604 7.0868 1 198 235 189
-5.7735 -7.5566 7.09 1 198 235 189
-1.0512 -8.4819 6.3559 1 198 235 189
-1.0617 -8.4793 6.3553 1 198 235 189
-1.0722 -8.4767 6.3544 1 198 235 189
-1.0829 -8.4758 6.3539 1 198 235 189
-1.0933 -8.4726 6.3533 1 198 235 189
-1.1041 -8.4718 6.3525 1 198 235 189
-1.1144 -8.4679 6.3515 1 198 235 189
-1.1251 -8.4668 6.3517 1 198 235 189
-1.1355 -8.464 6.3494 1 198 235 189
-1.1461 -8.4624 6.3514 1 198 235 189
-1.1566 -8.46 6.3486 1 198 235 189
-1.167 -8.4568 6.3477 1 198 235 189
-1.1773 -8.4545 6.3458 1 198 235 189
-1.1882 -8.4533 6.3473 1 198 235 189
-1.1986 -8.4505 6.3467 1 198 235 189
-1.2089 -8.448 6.3439 1 198 235 189
-1.2196 -8.4459 6.3439 1 198 235 189
-1.2301 -8.443 6.3429 1 198 235 189
-1.2406 -8.4407 6.3423 1 198 235 189
-1.2511 -8.4385 6.3431 1 198 235 189
-1.2616 -8.4361 6.3403 1 198 235 189
-5.1471 -7.7153 6.898 1 198 235 189
-5.1592 -7.7124 6.8994 1 198 235 189
-5.1711 -7.7091 6.9018 1 198 235 189
-5.1844 -7.708 6.9066 1 198 235 189
-5.196 -7.7044 6.9093 1 198 235 189
-5.2108 -7.7053 6.9169 1 198 235 189
-5.2588 -7.6927 6.9273 1 198 235 189
-5.2704 -7.689 6.9309 1 198 235 189
-5.2828 -7.6863 6.9321 1 198 235 189
-5.2954 -7.684 6.9424 1 198 235 189
-5.3077 -7.6811 6.9404 1 198 235 189
-5.3203 -7.6787 6.9483 1 198 235 189
-5.3603 -7.6745 6.9633 1 198 235 189
-5.373 -7.6721 6.9617 1 198 235 189
-5.3837 -7.6668 6.9671 1 198 235 189
-5.3965 -7.6646 6.9713 1 198 235 189
-5.4096 -7.6626 6.9752 1 198 235 189
-5.4222 -7.6601 6.98 1 198 235 189
-5.4344 -7.6569 6.9829 1 198 235 189
-5.4466 -7.6537 6.9858 1 198 235 189
-5.4603 -7.6525 6.9896 1 198 235 189
-5.5761 -7.6309 7.026 1 198 235 189
-5.5871 -7.6257 7.0277 1 198 235 189
-5.5963 -7.6183 7.032 1 198 235 189
-5.6093 -7.6159 7.0362 1 198 235 189
-5.6221 -7.6132 7.0356 1 198 235 189
-5.6353 -7.6109 7.0387 1 198 235 189
-5.6478 -7.6078 7.048 1 198 235 189
-5.6602 -7.6046 7.0507 1 198 235 189
-5.6724 -7.601 7.0553 1 198 235 189
-5.6846 -7.5974 7.0572 1 198 235 189
-5.698 -7.5954 7.0611 1 198 235 189
-5.7093 -7.5905 7.0636 1 198 235 189
-5.7222 -7.5878 7.0673 1 198 235 189
-5.7339 -7.5835 7.071 1 198 235 189
-5.7458 -7.5795 7.0726 1 198 235 189
-5.7581 -7.5758 7.0759 1 198 235 189
-5.7693 -7.5708 7.078 1 198 235 189
-5.7807 -7.5661 7.0799 1 198 235 189
-5.7914 -7.5604 7.0823 1 198 235 189
-5.8035 -7.5564 7.084 1 198 235 189
-5.814 -7.5504 7.0857 1 198 235 189
-5.826 -7.5464 7.0888 1 198 235 189
-1.0512 -8.4822 6.3394 1 198 235 189
-1.0618 -8.4802 6.3393 1 198 235 189
-1.0723 -8.4775 6.3383 1 198 235 189
-1.0828 -8.4751 6.3367 1 198 235 189
-1.0932 -8.4719 6.3365 1 198 235 189
-1.104 -8.4712 6.3354 1 198 235 189
-1.1144 -8.4679 6.3349 1 198 235 189
-1.125 -8.4665 6.3353 1 198 235 189
-1.1355 -8.4643 6.3334 1 198 235 189
-1.1459 -8.4606 6.3338 1 198 235 189
-1.1565 -8.4593 6.331 1 198 235 189
-1.1672 -8.4579 6.3318 1 198 235 189
-1.1773 -8.4548 6.3294 1 198 235 189
-1.1882 -8.4531 6.3305 1 198 235 189
-1.1987 -8.4508 6.3303 1 198 235 189
-1.2088 -8.448 6.3272 1 198 235 189
-1.2196 -8.4453 6.3272 1 198 235 189
-1.2302 -8.4436 6.3271 1 198 235 189
-1.2406 -8.4411 6.326 1 198 235 189
-1.2511 -8.4389 6.3271 1 198 235 189
-1.2616 -8.4361 6.3237 1 198 235 189
-5.147 -7.715 6.8797 1 198 235 189
-5.1594 -7.7127 6.8815 1 198 235 189
-5.1715 -7.7097 6.8847 1 198 235 189
-5.1833 -7.7064 6.8871 1 198 235 189
-5.1959 -7.7041 6.8909 1 198 235 189
-5.2105 -7.705 6.8989 1 198 235 189
-5.2585 -7.6923 6.9088 1 198 235 189
-5.2703 -7.6888 6.9126 1 198 235 189
-5.2828 -7.6864 6.9141 1 198 235 189
-5.2949 -7.6832 6.9236 1 198 235 189
-5.3074 -7.6807 6.9218 1 198 235 189
-5.3203 -7.6787 6.9306 1 198 235 189
-5.3738 -7.6732 6.944 1 198 235 189
-5.383 -7.6659 6.9485 1 198 235 189
-5.3962 -7.6641 6.9526 1 198 235 189
-5.4088 -7.6616 6.9565 1 198 235 189
-5.4213 -7.6589 6.9606 1 198 235 189
-5.4355 -7.6584 6.966 1 198 235 189
-5.4474 -7.6548 6.9685 1 198 235 189
-5.4597 -7.6518 6.971 1 198 235 189
-5.6168 -7.6259 7.0271 1 198 235 189
-5.6298 -7.6236 7.0268 1 198 235 189
-5.641 -7.6187 7.0279 1 198 235 189
-5.6489 -7.6094 7.0309 1 198 235 189
-5.6613 -7.6061 7.0335 1 198 235 189
-5.6738 -7.6029 7.0386 1 198 235 189
-5.6866 -7.6 7.0411 1 198 235 189
-5.6999 -7.598 7.0449 1 198 235 189
-5.7115 -7.5935 7.0484 1 198 235 189
-5.7252 -7.5919 7.0526 1 198 235 189
-5.7375 -7.5882 7.0569 1 198 235 189
-5.7504 -7.5855 7.0597 1 198 235 189
-5.762 -7.581 7.0626 1 198 235 189
-5.7741 -7.5772 7.0654 1 198 235 189
-5.7861 -7.5731 7.0683 1 198 235 189
-5.7985 -7.5695 7.0723 1 198 235 189
-5.8096 -7.5644 7.0729 1 198 235 189
-5.8211 -7.5597 7.0758 1 198 235 189
-5.8332 -7.5558 7.079 1 198 235 189
-5.8437 -7.5497 7.0792 1 198 235 189
-5.8552 -7.5449 7.083 1 198 235 189
-5.8681 -7.542 7.0844 1 198 235 189
-1.0514 -8.4836 6.3238 1 198 235 189
-1.0619 -8.4811 6.3234 1 198 235 189
-1.0725 -8.4787 6.3226 1 198 235 189
-1.0829 -8.4755 6.3204 1 198 235 189
-1.0935 -8.4736 6.3208 1 198 235 189
-1.1039 -8.4703 6.3182 1 198 235 189
-1.1145 -8.4686 6.3188 1 198 235 189
-1.125 -8.4661 6.3183 1 198 235 189
-1.1356 -8.4645 6.3166 1 198 235 189
-1.146 -8.4612 6.3176 1 198 235 189
-1.1565 -8.4593 6.3148 1 198 235 189
-1.1671 -8.4573 6.3152 1 198 235 189
-1.1774 -8.4558 6.3135 1 198 235 189
-1.1882 -8.4531 6.3139 1 198 235 189
-1.1987 -8.4507 6.3137 1 198 235 189
-1.209 -8.4494 6.3117 1 198 235 189
-1.2196 -8.4457 6.3105 1 198 235 189
-1.2303 -8.4445 6.3112 1 198 235 189
-1.2407 -8.4419 6.31 1 198 235 189
-1.2511 -8.4388 6.3101 1 198 235 189
-1.2617 -8.4369 6.3078 1 198 235 189
-5.1467 -7.7147 6.8613 1 198 235 189
-5.1586 -7.7115 6.8625 1 198 235 189
-5.1714 -7.7097 6.8666 1 198 235 189
-5.1838 -7.7072 6.8697 1 198 235 189
-5.1955 -7.7036 6.8728 1 198 235 189
-5.2095 -7.7035 6.8794 1 198 235 189
-5.2594 -7.6936 6.8919 1 198 235 189
-5.27 -7.6884 6.894 1 198 235 189
-5.2821 -7.6854 6.895 1 198 235 189
-5.2949 -7.6833 6.9055 1 198 235 189
-5.3077 -7.6811 6.9041 1 198 235 189
-5.3198 -7.678 6.9118 1 198 235 189
-5.3367 -7.6817 6.9175 1 198 235 189
-5.3738 -7.6733 6.9263 1 198 235 189
-5.3833 -7.6663 6.9307 1 198 235 189
-5.3963 -7.6642 6.9345 1 198 235 189
-5.4083 -7.6608 6.9371 1 198 235 189
-5.4214 -7.659 6.9425 1 198 235 189
-5.4343 -7.6567 6.9462 1 198 235 189
-5.4504 -7.659 6.9545 1 198 235 189
-5.68 -7.6111 7.0277 1 198 235 189
-5.6919 -7.6071 7.0292 1 198 235 189
-5.7023 -7.6011 7.0294 1 198 235 189
-5.7134 -7.596 7.0322 1 198 235 189
-5.726 -7.5928 7.035 1 198 235 189
-5.7396 -7.591 7.0409 1 198 235 189
-5.7523 -7.588 7.0435 1 198 235 189
-5.7648 -7.5847 7.0471 1 198 235 189
-5.7774 -7.5815 7.0513 1 198 235 189
-5.7899 -7.578 7.0539 1 198 235 189
-5.8022 -7.5745 7.0583 1 198 235 189
-5.8145 -7.5707 7.0602 1 198 235 189
-5.8266 -7.5669 7.0639 1 198 235 189
-5.8388 -7.563 7.0672 1 198 235 189
-5.8508 -7.5589 7.0693 1 198 235 189
-5.863 -7.555 7.0739 1 198 235 189
-5.875 -7.5509 7.0746 1 198 235 189
-5.8861 -7.5455 7.0779 1 198 235 189
-5.898 -7.5412 7.0809 1 198 235 189
-5.9075 -7.5339 7.0851 1 198 235 189
-5.9213 -7.5319 7.0851 1 198 235 189
-5.9331 -7.527 7.0858 1 198 235 189
-1.0513 -8.4826 6.3065 1 198 235 189
-1.0619 -8.4807 6.3069 1 198 235 189
-1.0725 -8.4786 6.3059 1 198 235 189
-1.0829 -8.4756 6.3039 1 198 235 189
-1.0935 -8.4735 6.3046 1 198 235 189
-1.104 -8.4714 6.3024 1 198 235 189
-1.1146 -8.4692 6.3026 1 198 235 189
-1.1251 -8.4671 6.3021 1 198 235 189
-1.1357 -8.4652 6.3009 1 198 235 189
-1.146 -8.4615 6.3013 1 198 235 189
-1.1568 -8.4609 6.299 1 198 235 189
-1.1671 -8.4575 6.2988 1 198 235 189
-1.1775 -8.4559 6.2974 1 198 235 189
-1.1883 -8.4541 6.298 1 198 235 189
-1.1987 -8.451 6.2973 1 198 235 189
-1.2091 -8.4495 6.2952 1 198 235 189
-1.2197 -8.4466 6.295 1 198 235 189
-1.2304 -8.4453 6.2952 1 198 235 189
-1.2408 -8.4424 6.2938 1 198 235 189
-1.2512 -8.4394 6.2944 1 198 235 189
-1.2617 -8.4373 6.2915 1 198 235 189
-5.1472 -7.7155 6.844 1 198 235 189
-5.1585 -7.7114 6.8443 1 198 235 189
-5.1716 -7.7099 6.8483 1 198 235 189
-5.1837 -7.707 6.8515 1 198 235 189
-5.1955 -7.7037 6.8544 1 198 235 189
-5.2101 -7.7044 6.8622 1 198 235 189
-5.2592 -7.6934 6.8736 1 198 235 189
-5.2702 -7.6887 6.8762 1 198 235 189
-5.2827 -7.6862 6.8777 1 198 235 189
-5.2952 -7.6837 6.8877 1 198 235 189
-5.3081 -7.6817 6.8865 1 198 235 189
-5.3206 -7.6791 6.8947 1 198 235 189
-5.374 -7.6735 6.9084 1 198 235 189
-5.3829 -7.6658 6.912 1 198 235 189
-5.3959 -7.6637 6.9158 1 198 235 189
-5.4084 -7.6611 6.9196 1 198 235 189
-5.4216 -7.6593 6.9245 1 198 235 189
-5.4334 -7.6555 6.9269 1 198 235 189
-5.451 -7.6598 6.9365 1 198 235 189
-5.7449 -7.5981 7.029 1 198 235 189
-5.7559 -7.5928 7.0299 1 198 235 189
-5.7672 -7.5878 7.0319 1 198 235 189
-5.7781 -7.5823 7.0331 1 198 235 189
-5.7914 -7.5801 7.0378 1 198 235 189
-5.8044 -7.5774 7.0425 1 198 235 189
-5.8167 -7.5736 7.0444 1 198 235 189
-5.8296 -7.5707 7.049 1 198 235 189
-5.8422 -7.5673 7.0531 1 198 235 189
-5.855 -7.5643 7.0558 1 198 235 189
-5.8667 -7.5598 7.0598 1 198 235 189
-5.8792 -7.5563 7.0611 1 198 235 189
-5.8918 -7.5529 7.0667 1 198 235 189
-5.9042 -7.5491 7.0697 1 198 235 189
-5.915 -7.5433 7.0754 1 198 235 189
-5.9282 -7.5407 7.0753 1 198 235 189
-5.9413 -7.5373 7.0769 1 198 235 189
-5.9497 -7.529 7.0829 1 198 235 189
-5.9618 -7.5244 7.0858 1 198 235 189
-5.9749 -7.5219 7.089 1 198 235 189
-1.0514 -8.483 6.2903 1 198 235 189
-1.062 -8.4812 6.2903 1 198 235 189
-1.0726 -8.4796 6.2901 1 198 235 189
-1.0829 -8.4759 6.2876 1 198 235 189
-1.0935 -8.4736 6.2877 1 198 235 189
-1.104 -8.4711 6.2856 1 198 235 189
-1.1144 -8.4682 6.2853 1 198 235 189
-1.125 -8.4666 6.2856 1 198 235 189
-1.1355 -8.4641 6.2836 1 198 235 189
-1.146 -8.4616 6.2848 1 198 235 189
-1.1567 -8.4602 6.2824 1 198 235 189
-1.1672 -8.4579 6.2826 1 198 235 189
-1.1774 -8.4553 6.28 1 198 235 189
-1.1882 -8.4531 6.2808 1 198 235 189
-1.1987 -8.4508 6.2806 1 198 235 189
-1.2089 -8.4485 6.278 1 198 235 189
-1.2197 -8.4462 6.2778 1 198 235 189
-1.2303 -8.4443 6.2779 1 198 235 189
-1.2409 -8.4428 6.2776 1 198 235 189
-1.2514 -8.4409 6.2786 1 198 235 189
-1.2618 -8.4374 6.2751 1 198 235 189
-5.1466 -7.7145 6.8252 1 198 235 189
-5.1591 -7.7123 6.8272 1 198 235 189
-5.1713 -7.7095 6.8305 1 198 235 189
-5.1835 -7.7068 6.8338 1 198 235 189
-5.1959 -7.7043 6.8374 1 198 235 189
-5.21 -7.7042 6.844 1 198 235 189
-5.2592 -7.6934 6.8556 1 198 235 189
-5.2706 -7.6892 6.8586 1 198 235 189
-5.2823 -7.6856 6.8595 1 198 235 189
-5.295 -7.6834 6.8694 1 198 235 189
-5.3078 -7.6812 6.868 1 198 235 189
-5.3204 -7.6789 6.8763 1 198 235 189
-5.3367 -7.6817 6.8813 1 198 235 189
-5.3745 -7.6742 6.8908 1 198 235 189
-5.3836 -7.6667 6.8947 1 198 235 189
-5.3963 -7.6643 6.8982 1 198 235 189
-5.4084 -7.661 6.9009 1 198 235 189
-5.4216 -7.6593 6.9064 1 198 235 189
-5.4347 -7.6573 6.9103 1 198 235 189
-5.4504 -7.6591 6.9176 1 198 235 189
-5.7992 -7.5903 7.0283 1 198 235 189
-5.8088 -7.5831 7.0293 1 198 235 189
-5.8197 -7.5776 7.0296 1 198 235 189
-5.8315 -7.5731 7.0327 1 198 235 189
-5.8441 -7.5699 7.0365 1 198 235 189
-5.8563 -7.566 7.0388 1 198 235 189
-5.8691 -7.5629 7.0441 1 198 235 189
-5.8824 -7.5603 7.0463 1 198 235 189
-5.8952 -7.5572 7.0518 1 198 235 189
-5.908 -7.5539 7.0556 1 198 235 189
-5.9199 -7.5496 7.0631 1 198 235 189
-5.9334 -7.5473 7.0623 1 198 235 189
-5.9464 -7.5438 7.0649 1 198 235 189
-5.9576 -7.5389 7.0737 1 198 235 189
-5.9703 -7.5351 7.0768 1 198 235 189
-5.9815 -7.5303 7.0782 1 198 235 189
-5.9932 -7.5256 7.0809 1 198 235 189
-6.0056 -7.5216 7.0829 1 198 235 189
-6.0165 -7.516 7.0856 1 198 235 189
-6.0277 -7.5106 7.0882 1 198 235 189
-6.0395 -7.506 7.09 1 198 235 189
-1.0513 -8.483 6.2737 1 198 235 189
-1.0619 -8.4804 6.2736 1 198 235 189
-1.0725 -8.479 6.2731 1 198 235 189
-1.083 -8.4761 6.2712 1 198 235 189
-1.0934 -8.473 6.2711 1 198 235 189
-1.104 -8.4713 6.2693 1 198 235 189
-1.1145 -8.4689 6.2693 1 198 235 189
-1.125 -8.4663 6.2688 1 198 235 189
-1.1355 -8.4641 6.267 1 198 235 189
-1.146 -8.4617 6.2684 1 198 235 189
-1.1567 -8.4606 6.2661 1 198 235 189
-1.1671 -8.4574 6.2653 1 198 235 189
-1.1776 -8.4566 6.2649 1 198 235 189
-1.1883 -8.4539 6.2649 1 198 235 189
-1.1987 -8.4506 6.264 1 198 235 189
-1.209 -8.449 6.2618 1 198 235 189
-1.2198 -8.4469 6.2622 1 198 235 189
-1.2303 -8.4449 6.2619 1 198 235 189
-1.2409 -8.4428 6.2611 1 198 235 189
-1.2513 -8.4399 6.2617 1 198 235 189
-1.2618 -8.4378 6.2589 1 198 235 189
-5.1469 -7.7149 6.8076 1 198 235 189
-5.1587 -7.7116 6.8086 1 198 235 189
-5.1707 -7.7086 6.8117 1 198 235 189
-5.1839 -7.7072 6.8158 1 198 235 189
-5.1964 -7.7049 6.8195 1 198 235 189
-5.2098 -7.704 6.8258 1 198 235 189
-5.2597 -7.694 6.8381 1 198 235 189
-5.2698 -7.6881 6.8396 1 198 235 189
-5.283 -7.6866 6.8419 1 198 235 189
-5.2951 -7.6836 6.8515 1 198 235 189
-5.3077 -7.6811 6.8498 1 198 235 189
-5.3203 -7.6787 6.8576 1 198 235 189
-5.3372 -7.6824 6.8638 1 198 235 189
-5.3743 -7.674 6.8725 1 198 235 189
-5.3822 -7.6648 6.8749 1 198 235 189
-5.3964 -7.6645 6.8806 1 198 235 189
-5.4087 -7.6615 6.8836 1 198 235 189
-5.4213 -7.6589 6.8879 1 198 235 189
-5.4342 -7.6567 6.8915 1 198 235 189
-5.4509 -7.6598 6.9001 1 198 235 189
-5.8518 -7.5798 7.0277 1 198 235 189
-5.8624 -7.5738 7.0276 1 198 235 189
-5.872 -7.5666 7.0291 1 198 235 189
-5.8843 -7.5628 7.0301 1 198 235 189
-5.8965 -7.5589 7.0352 1 198 235 189
-5.9091 -7.5554 7.0384 1 198 235 189
-5.9216 -7.5518 7.0462 1 198 235 189
-5.9355 -7.55 7.0468 1 198 235 189
-5.9489 -7.547 7.0488 1 198 235 189
-5.9613 -7.5437 7.0595 1 198 235 189
-5.9737 -7.5394 7.0622 1 198 235 189
-5.9869 -7.5371 7.066 1 198 235 189
-5.9983 -7.532 7.0683 1 198 235 189
-6.0114 -7.5289 7.0716 1 198 235 189
-6.024 -7.5253 7.0757 1 198 235 189
-6.0352 -7.5199 7.0778 1 198 235 189
-6.0472 -7.5156 7.0804 1 198 235 189
-6.0591 -7.511 7.0837 1 198 235 189
-6.0711 -7.5065 7.0853 1 198 235 189
-6.0816 -7.5002 7.0875 1 198 235 189
-1.0512 -8.482 6.2565 1 198 235 189
-1.0618 -8.4798 6.2562 1 198 235 189
-1.0723 -8.4776 6.2556 1 198 235 189
-1.0829 -8.4757 6.2544 1 198 235 189
-1.0935 -8.4735 6.2546 1 198 235 189
-1.104 -8.4713 6.2528 1 198 235 189
-1.1145 -8.469 6.2529 1 198 235 189
-1.125 -8.4663 6.2524 1 198 235 189
-1.1356 -8.4643 6.2507 1 198 235 189
-1.146 -8.4618 6.2519 1 198 235 189
-1.1566 -8.4597 6.249 1 198 235 189
-1.1672 -8.458 6.2496 1 198 235 189
-1.1775 -8.456 6.2476 1 198 235 189
-1.1881 -8.4525 6.2474 1 198 235 189
-1.1987 -8.4511 6.2479 1 198 235 189
-1.209 -8.4489 6.2453 1 198 235 189
-1.2198 -8.4468 6.2453 1 198 235 189
-1.2302 -8.4436 6.2444 1 198 235 189
-1.2407 -8.4419 6.2443 1 198 235 189
-1.2514 -8.4404 6.2452 1 198 235 189
-1.2618 -8.4377 6.2424 1 198 235 189
-5.1469 -7.7149 6.7897 1 198 235 189
-5.1587 -7.7116 6.7911 1 198 235 189
-5.1709 -7.7088 6.794 1 198 235 189
-5.1838 -7.7071 6.7982 1 198 235 189
-5.1951 -7.7031 6.8004 1 198 235 189
-5.2095 -7.7035 6.8075 1 198 235 189
-5.2585 -7.6923 6.8186 1 198 235 189
-5.2701 -7.6886 6.8225 1 198 235 189
-5.2828 -7.6864 6.8242 1 198 235 189
-5.2952 -7.6836 6.8335 1 198 235 189
-5.3077 -7.6812 6.8319 1 198 235 189
-5.3203 -7.6787 6.8401 1 198 235 189
-5.3374 -7.6827 6.846 1 198 235 189
-5.3744 -7.6741 6.8545 1 198 235 189
-5.3837 -7.6668 6.8586 1 198 235 189
-5.3965 -7.6645 6.8621 1 198 235 189
-5.4085 -7.6612 6.8648 1 198 235 189
-5.4208 -7.6582 6.8691 1 198 235 189
-5.4341 -7.6564 6.8732 1 198 235 189
-5.4502 -7.6588 6.8815 1 198 235 189
-5.9051 -7.5699 7.027 1 198 235 189
-5.9148 -7.5627 7.0267 1 198 235 189
-5.9234 -7.5541 7.0302 1 198 235 189
-5.9363 -7.551 7.0288 1 198 235 189
-5.9487 -7.5467 7.0305 1 198 235 189
-5.9618 -7.5443 7.0415 1 198 235 189
-5.9749 -7.5414 7.0454 1 198 235 189
-5.9889 -7.5395 7.0497 1 198 235 189
-6.0011 -7.5355 7.053 1 198 235 189
-6.0145 -7.5329 7.0562 1 198 235 189
-6.0274 -7.5296 7.0612 1 198 235 189
-6.0408 -7.527 7.0662 1 198 235 189
-6.0527 -7.5223 7.0681 1 198 235 189
-6.0652 -7.5185 7.0717 1 198 235 189
-6.0773 -7.5141 7.0738 1 198 235 189
-6.0895 -7.51 7.078 1 198 235 189
-6.1015 -7.5055 7.0806 1 198 235 189
-6.1135 -7.5009 7.083 1 198 235 189
-6.1248 -7.4955 7.0851 1 198 235 189
-6.1367 -7.4909 7.0872 1 198 235 189
-1.0512 -8.482 6.2404 1 198 235 189
-1.0617 -8.4794 6.2399 1 198 235 189
-1.0725 -8.4788 6.24 1 198 235 189
-1.0829 -8.4756 6.2378 1 198 235 189
-1.0934 -8.4734 6.2384 1 198 235 189
-1.1039 -8.4709 6.236 1 198 235 189
-1.1145 -8.4687 6.2362 1 198 235 189
-1.1251 -8.4669 6.2359 1 198 235 189
-1.1356 -8.4647 6.2346 1 198 235 189
-1.1461 -8.4619 6.2356 1 198 235 189
-1.1565 -8.4591 6.2321 1 198 235 189
-1.1672 -8.458 6.2332 1 198 235 189
-1.1774 -8.4553 6.231 1 198 235 189
-1.1882 -8.4531 6.2314 1 198 235 189
-1.1988 -8.4518 6.2319 1 198 235 189
-1.209 -8.4488 6.2287 1 198 235 189
-1.2198 -8.447 6.2294 1 198 235 189
-1.2303 -8.4445 6.2287 1 198 235 189
-1.241 -8.4433 6.2286 1 198 235 189
-1.2515 -8.4413 6.2298 1 198 235 189
-1.2619 -8.4384 6.2264 1 198 235 189
-5.1368 -7.7208 6.7701 1 198 235 189
-5.146 -7.7136 6.7707 1 198 235 189
-5.1584 -7.7112 6.7725 1 198 235 189
-5.1707 -7.7085 6.7758 1 198 235 189
-5.1832 -7.7062 6.7791 1 198 235 189
-5.1961 -7.7045 6.7833 1 198 235 189
-5.2089 -7.7026 6.7888 1 198 235 189
-5.2589 -7.6929 6.8012 1 198 235 189
-5.27 -7.6883 6.8039 1 198 235 189
-5.2823 -7.6856 6.8051 1 198 235 189
-5.2952 -7.6837 6.8156 1 198 235 189
-5.3074 -7.6807 6.8134 1 198 235 189
-5.3203 -7.6787 6.8221 1 198 235 189
-5.3373 -7.6827 6.828 1 198 235 189
-5.374 -7.6735 6.8359 1 198 235 189
-5.3838 -7.667 6.8407 1 198 235 189
-5.3954 -7.663 6.8432 1 198 235 189
-5.4085 -7.6612 6.8472 1 198 235 189
-5.4217 -7.6594 6.8521 1 198 235 189
-5.4339 -7.6561 6.8549 1 198 235 189
-5.4499 -7.6584 6.8625 1 198 235 189
-5.9601 -7.5612 7.025 1 198 235 189
-5.9653 -7.5488 7.0272 1 198 235 189
-5.9775 -7.5447 7.0303 1 198 235 189
-5.9901 -7.541 7.0326 1 198 235 189
-6.0022 -7.5369 7.0357 1 198 235 189
-6.0162 -7.5349 7.04 1 198 235 189
-6.0293 -7.532 7.0448 1 198 235 189
-6.0425 -7.529 7.0496 1 198 235 189
-6.0554 -7.5257 7.0531 1 198 235 189
-6.0689 -7.5231 7.0578 1 198 235 189
-6.0813 -7.5191 7.0599 1 198 235 189
-6.0936 -7.515 7.0641 1 198 235 189
-6.1064 -7.5115 7.0676 1 198 235 189
-6.1192 -7.5079 7.071 1 198 235 189
-6.1312 -7.5033 7.0739 1 198 235 189
-6.1433 -7.4989 7.0761 1 198 235 189
-6.1559 -7.495 7.0807 1 198 235 189
-6.1673 -7.4898 7.0825 1 198 235 189
-6.1788 -7.4845 7.0844 1 198 235 189
-6.1911 -7.4802 7.0877 1 198 235 189
-1.0512 -8.482 6.2235 1 198 235 189
-1.0618 -8.4801 6.2236 1 198 235 189
-1.0723 -8.4776 6.2231 1 198 235 189
-1.083 -8.476 6.2217 1 198 235 189
-1.0934 -8.4734 6.2216 1 198 235 189
-1.1039 -8.4706 6.2193 1 198 235 189
-1.1145 -8.4686 6.2197 1 198 235 189
-1.125 -8.466 6.2193 1 198 235 189
-1.1356 -8.4645 6.2179 1 198 235 189
-1.1462 -8.4628 6.2198 1 198 235 189
-1.1566 -8.4596 6.2161 1 198 235 189
-1.1671 -8.4572 6.2162 1 198 235 189
-1.1775 -8.4561 6.2148 1 198 235 189
-1.1882 -8.4531 6.215 1 198 235 189
-1.1989 -8.452 6.2156 1 198 235 189
-1.2089 -8.4483 6.2124 1 198 235 189
-1.2198 -8.4467 6.2124 1 198 235 189
-1.2303 -8.4443 6.2121 1 198 235 189
-1.2409 -8.4432 6.2121 1 198 235 189
-1.2513 -8.4401 6.2126 1 198 235 189
-1.262 -8.4391 6.2105 1 198 235 189
-5.1369 -7.7209 6.7523 1 198 235 189
-5.1463 -7.7141 6.7533 1 198 235 189
-5.1586 -7.7114 6.7553 1 198 235 189
-5.17 -7.7076 6.7572 1 198 235 189
-5.1827 -7.7056 6.7611 1 198 235 189
-5.195 -7.7029 6.7645 1 198 235 189
-5.2088 -7.7025 6.7707 1 198 235 189
-5.2592 -7.6933 6.7836 1 198 235 189
-5.2696 -7.6878 6.7859 1 198 235 189
-5.2823 -7.6856 6.7876 1 198 235 189
-5.295 -7.6833 6.7973 1 198 235 189
-5.3077 -7.6811 6.7958 1 198 235 189
-5.3197 -7.6778 6.8033 1 198 235 189
-5.3371 -7.6823 6.8097 1 198 235 189
-5.3739 -7.6733 6.8178 1 198 235 189
-5.383 -7.6658 6.8216 1 198 235 189
-5.3955 -7.6631 6.8248 1 198 235 189
-5.4089 -7.6616 6.8291 1 198 235 189
-5.4209 -7.6583 6.8331 1 198 235 189
-5.4331 -7.655 6.8358 1 198 235 189
-5.4498 -7.6581 6.8442 1 198 235 189
-6.0006 -7.5543 7.0263 1 198 235 189
-6.0099 -7.5465 7.0262 1 198 235 189
-6.0202 -7.5399 7.0261 1 198 235 189
-6.0298 -7.5325 7.0272 1 198 235 189
-6.0428 -7.5294 7.0313 1 198 235 189
-6.0552 -7.5254 7.0339 1 198 235 189
-6.0694 -7.5237 7.0393 1 198 235 189
-6.0839 -7.5224 7.0443 1 198 235 189
-6.0966 -7.5187 7.049 1 198 235 189
-6.1098 -7.5156 7.0528 1 198 235 189
-6.1237 -7.5134 7.0575 1 198 235 189
-6.1358 -7.509 7.0606 1 198 235 189
-6.149 -7.5058 7.0639 1 198 235 189
-6.1619 -7.5023 7.0689 1 198 235 189
-6.1738 -7.4976 7.0712 1 198 235 189
-6.1864 -7.4937 7.0744 1 198 235 189
-6.1985 -7.4892 7.0771 1 198 235 189
-6.2091 -7.4828 7.0826 1 198 235 189
-6.2222 -7.4794 7.083 1 198 235 189
-6.234 -7.4745 7.0853 1 198 235 189
-6.2458 -7.4695 7.0871 1 198 235 189
-1.0512 -8.4816 6.2073 1 198 235 189
-1.0618 -8.4802 6.2076 1 198 235 189
-1.0725 -8.4788 6.2072 1 198 235 189
-1.083 -8.4762 6.2055 1 198 235 189
-1.0934 -8.4732 6.2055 1 198 235 189
-1.1041 -8.4721 6.2045 1 198 235 189
-1.1145 -8.4689 6.2036 1 198 235 189
-1.1251 -8.4673 6.2038 1 198 235 189
-1.1357 -8.465 6.2019 1 198 235 189
-1.1462 -8.4627 6.2034 1 198 235 189
-1.1567 -8.4603 6.2002 1 198 235 189
-1.1674 -8.4591 6.2008 1 198 235 189
-1.1776 -8.4568 6.1993 1 198 235 189
-1.1884 -8.4546 6.1996 1 198 235 189
-1.1988 -8.4515 6.1989 1 198 235 189
-1.209 -8.4493 6.1963 1 198 235 189
-1.2198 -8.4472 6.1968 1 198 235 189
-1.2305 -8.4459 6.1969 1 198 235 189
-1.2409 -8.443 6.1955 1 198 235 189
-1.2516 -8.4418 6.1974 1 198 235 189
-1.262 -8.4387 6.1938 1 198 235 189
-5.137 -7.7211 6.7346 1 198 235 189
-5.1459 -7.7134 6.7349 1 198 235 189
-5.158 -7.7106 6.7363 1 198 235 189
-5.1698 -7.7072 6.739 1 198 235 189
-5.1823 -7.7049 6.7422 1 198 235 189
-5.1953 -7.7034 6.7466 1 198 235 189
-5.2075 -7.7005 6.7511 1 198 235 189
-5.2499 -7.7005 6.7667 1 198 235 189
-5.2592 -7.6934 6.7658 1 198 235 189
-5.2691 -7.6871 6.767 1 198 235 189
-5.2818 -7.6849 6.7687 1 198 235 189
-5.2938 -7.6817 6.7779 1 198 235 189
-5.307 -7.6801 6.7771 1 198 235 189
-5.3198 -7.678 6.7851 1 198 235 189
-5.3371 -7.6822 6.7916 1 198 235 189
-5.374 -7.6735 6.8 1 198 235 189
-5.3835 -7.6666 6.8043 1 198 235 189
-5.3959 -7.6636 6.8077 1 198 235 189
-5.4079 -7.6603 6.8104 1 198 235 189
-5.4208 -7.6581 6.8149 1 198 235 189
-5.434 -7.6564 6.819 1 198 235 189
-5.4491 -7.6572 6.8258 1 198 235 189
-6.0541 -7.5434 7.0259 1 198 235 189
-6.0639 -7.5363 7.0259 1 198 235 189
-6.0746 -7.5302 7.0273 1 198 235 189
-6.0857 -7.5246 7.0278 1 198 235 189
-6.0973 -7.5196 7.0312 1 198 235 189
-6.1098 -7.5156 7.0342 1 198 235 189
-6.1236 -7.5133 7.0388 1 198 235 189
-6.1378 -7.5115 7.0443 1 198 235 189
-6.1505 -7.5077 7.0471 1 198 235 189
-6.1638 -7.5047 7.0525 1 198 235 189
-6.177 -7.5015 7.0563 1 198 235 189
-6.1894 -7.4974 7.0592 1 198 235 189
-6.2041 -7.4959 7.0652 1 198 235 189
-6.2147 -7.4896 7.0698 1 198 235 189
-6.2289 -7.4875 7.072 1 198 235 189
-6.24 -7.4818 7.0735 1 198 235 189
-6.2531 -7.4782 7.0767 1 198 235 189
-6.2622 -7.47 7.081 1 198 235 189
-6.2751 -7.4664 7.0846 1 198 235 189
-6.2863 -7.4606 7.087 1 198 235 189
-1.0514 -8.4835 6.1918 1 198 235 189
-1.0619 -8.481 6.1914 1 198 235 189
-1.0723 -8.4777 6.1904 1 198 235 189
-1.0829 -8.4753 6.1884 1 198 235 189
-1.0935 -8.4738 6.1896 1 198 235 189
-1.104 -8.4713 6.1871 1 198 235 189
-1.1146 -8.4695 6.1876 1 198 235 189
-1.1251 -8.4672 6.1874 1 198 235 189
-1.1357 -8.4654 6.1859 1 198 235 189
-1.1463 -8.4634 6.1875 1 198 235 189
-1.1568 -8.4609 6.1847 1 198 235 189
-1.1675 -8.46 6.1855 1 198 235 189
-1.1777 -8.4572 6.1829 1 198 235 189
-1.1884 -8.4548 6.1835 1 198 235 189
-1.1989 -8.4526 6.1833 1 198 235 189
-1.2093 -8.4513 6.1818 1 198 235 189
-1.2198 -8.4471 6.1803 1 198 235 189
-1.2304 -8.4454 6.1802 1 198 235 189
-1.241 -8.4438 6.1802 1 198 235 189
-1.2517 -8.4424 6.1815 1 198 235 189
-1.2621 -8.4395 6.1781 1 198 235 189
-5.1358 -7.7194 6.7154 1 198 235 189
-5.1455 -7.7128 6.7171 1 198 235 189
-5.1573 -7.7095 6.718 1 198 235 189
-5.17 -7.7076 6.7216 1 198 235 189
-5.1831 -7.7061 6.726 1 198 235 189
-5.1948 -7.7026 6.7286 1 198 235 189
-5.2087 -7.7023 6.7349 1 198 235 189
-5.2485 -7.6984 6.747 1 198 235 189
-5.2579 -7.6914 6.7467 1 198 235 189
-5.2687 -7.6864 6.749 1 198 235 189
-5.2806 -7.6831 6.7496 1 198 235 189
-5.2942 -7.6822 6.7605 1 198 235 189
-5.3071 -7.6803 6.7593 1 198 235 189
-5.3193 -7.6772 6.767 1 198 235 189
-5.3363 -7.6812 6.7728 1 198 235 189
-5.3632 -7.6786 6.7859 1 198 235 189
-5.373 -7.6721 6.7808 1 198 235 189
-5.3837 -7.6668 6.7866 1 198 235 189
-5.3958 -7.6635 6.7892 1 198 235 189
-5.4086 -7.6612 6.7927 1 198 235 189
-5.4205 -7.6577 6.7966 1 198 235 189
-5.4337 -7.6559 6.8005 1 198 235 189
-5.4501 -7.6587 6.8091 1 198 235 189
-6.1011 -7.5242 7.017 1 198 235 189
-6.1129 -7.5195 7.0193 1 198 235 189
-6.127 -7.5174 7.0245 1 198 235 189
-6.1394 -7.5133 7.0275 1 198 235 189
-6.1518 -7.5092 7.0299 1 198 235 189
-6.165 -7.5061 7.0352 1 198 235 189
-6.1782 -7.5029 7.039 1 198 235 189
-6.1911 -7.4994 7.0425 1 198 235 189
-6.2055 -7.4977 7.0482 1 198 235 189
-6.2191 -7.4949 7.0566 1 198 235 189
-6.2316 -7.4908 7.0564 1 198 235 189
-6.2439 -7.4864 7.0592 1 198 235 189
-6.2574 -7.4834 7.0628 1 198 235 189
-6.2692 -7.4784 7.0702 1 198 235 189
-6.2825 -7.4751 7.0742 1 198 235 189
-6.2944 -7.4703 7.078 1 198 235 189
-6.3059 -7.4649 7.0794 1 198 235 189
-6.3204 -7.463 7.0805 1 198 235 189
-6.329 -7.4541 7.0843 1 198 235 189
-6.3416 -7.45 7.0874 1 198 235 189
-1.0513 -8.4826 6.1753 1 198 235 189
-1.0618 -8.4803 6.175 1 198 235 189
-1.0725 -8.4792 6.1747 1 198 235 189
-1.083 -8.4761 6.1727 1 198 235 189
-1.0934 -8.4733 6.1729 1 198 235 189
-1.1042 -8.4728 6.1719 1 198 235 189
-1.1146 -8.4698 6.1715 1 198 235 189
-1.1252 -8.468 6.1716 1 198 235 189
-1.1357 -8.4653 6.1694 1 198 235 189
-1.1463 -8.4635 6.1712 1 198 235 189
-1.1567 -8.4608 6.1678 1 198 235 189
-1.1671 -8.4595 6.1688 1 198 235 189
-1.1777 -8.4575 6.1672 1 198 235 189
-1.1886 -8.4558 6.1678 1 198 235 189
-1.199 -8.4528 6.1672 1 198 235 189
-1.2093 -8.451 6.1649 1 198 235 189
-1.2202 -8.4493 6.1656 1 198 235 189
-1.2305 -8.4462 6.1645 1 198 235 189
-1.2412 -8.4448 6.1642 1 198 235 189
-1.2516 -8.4421 6.1649 1 198 235 189
-1.2622 -8.4403 6.1624 1 198 235 189
-5.1367 -7.7206 6.6987 1 198 235 189
-5.1457 -7.7131 6.6991 1 198 235 189
-5.1581 -7.7108 6.701 1 198 235 189
-5.17 -7.7075 6.7037 1 198 235 189
-5.1825 -7.7052 6.7074 1 198 235 189
-5.1949 -7.7027 6.7109 1 198 235 189
-5.2078 -7.7009 6.7159 1 198 235 189
-5.2495 -7.6999 6.7305 1 198 235 189
-5.2581 -7.6917 6.7287 1 198 235 189
-5.2691 -7.687 6.7312 1 198 235 189
-5.2813 -7.6842 6.7328 1 198 235 189
-5.2928 -7.6802 6.7414 1 198 235 189
-5.3066 -7.6796 6.7408 1 198 235 189
-5.3194 -7.6774 6.7493 1 198 235 189
-5.3362 -7.681 6.7547 1 198 235 189
-5.3729 -7.6719 6.7627 1 198 235 189
-5.3824 -7.665 6.7671 1 198 235 189
-5.3954 -7.6629 6.7712 1 198 235 189
-5.407 -7.659 6.7733 1 198 235 189
-5.4206 -7.6578 6.7787 1 198 235 189
-5.4337 -7.6559 6.7826 1 198 235 189
-5.4495 -7.6577 6.7903 1 198 235 189
-6.1008 -7.5239 6.9982 1 198 235 189
-6.1136 -7.5203 7.0015 1 198 235 189
-6.1282 -7.5189 7.0069 1 198 235 189
-6.1425 -7.5172 7.0125 1 198 235 189
-6.1559 -7.5143 7.0161 1 198 235 189
-6.1694 -7.5115 7.0217 1 198 235 189
-6.181 -7.5063 7.0236 1 198 235 189
-6.1922 -7.5007 7.0251 1 198 235 189
-6.2061 -7.4983 7.0302 1 198 235 189
-6.2201 -7.4961 7.0387 1 198 235 189
-6.2339 -7.4935 7.0404 1 198 235 189
-6.247 -7.4901 7.0441 1 198 235 189
-6.2602 -7.4868 7.0474 1 198 235 189
-6.2729 -7.4829 7.0558 1 198 235 189
-6.2851 -7.4783 7.0585 1 198 235 189
-6.2992 -7.476 7.0642 1 198 235 189
-6.3116 -7.4715 7.067 1 198 235 189
-6.3255 -7.469 7.0675 1 198 235 189
-6.3366 -7.4631 7.0736 1 198 235 189
-6.3484 -7.458 7.0763 1 198 235 189
-6.3607 -7.4529 7.0802 1 198 235 189
-6.3727 -7.4479 7.0822 1 198 235 189
-6.3847 -7.4435 7.0844 1 198 235 189
-1.0515 -8.4841 6.1596 1 198 235 189
-1.062 -8.4817 6.1597 1 198 235 189
-1.0724 -8.4785 6.1583 1 198 235 189
-1.083 -8.4762 6.1564 1 198 235 189
-1.0936 -8.4748 6.1576 1 198 235 189
-1.1042 -8.4725 6.1553 1 198 235 189
-1.1148 -8.4707 6.1558 1 198 235 189
-1.1252 -8.4682 6.1554 1 198 235 189
-1.1358 -8.466 6.1537 1 198 235 189
-1.1462 -8.4632 6.1547 1 198 235 189
-1.1569 -8.4621 6.1525 1 198 235 189
-1.1671 -8.4593 6.1523 1 198 235 189
-1.1777 -8.4574 6.1508 1 198 235 189
-1.1885 -8.4554 6.1512 1 198 235 189
-1.199 -8.4532 6.1515 1 198 235 189
-1.2093 -8.4512 6.1492 1 198 235 189
-1.2201 -8.4489 6.149 1 198 235 189
-1.2306 -8.4469 6.1487 1 198 235 189
-1.2412 -8.4448 6.1479 1 198 235 189
-1.2518 -8.4435 6.1497 1 198 235 189
-1.2622 -8.4405 6.1462 1 198 235 189
-5.1365 -7.7203 6.6807 1 198 235 189
-5.1456 -7.713 6.6813 1 198 235 189
-5.1578 -7.7103 6.6833 1 198 235 189
-5.1691 -7.7062 6.6849 1 198 235 189
-5.1826 -7.7053 6.6898 1 198 235 189
-5.1951 -7.703 6.6934 1 198 235 189
-5.2083 -7.7016 6.6988 1 198 235 189
-5.2489 -7.699 6.7119 1 198 235 189
-5.2576 -7.691 6.7107 1 198 235 189
-5.2689 -7.6867 6.7136 1 198 235 189
-5.2806 -7.6831 6.714 1 198 235 189
-5.2933 -7.6809 6.7237 1 198 235 189
-5.3053 -7.6777 6.7218 1 198 235 189
-5.318 -7.6754 6.7297 1 198 235 189
-5.3348 -7.679 6.7355 1 198 235 189
-5.3729 -7.672 6.7449 1 198 235 189
-5.3827 -7.6655 6.7496 1 198 235 189
-5.3951 -7.6626 6.7526 1 198 235 189
-5.407 -7.659 6.7554 1 198 235 189
-5.4207 -7.658 6.761 1 198 235 189
-5.4333 -7.6553 6.7642 1 198 235 189
-5.45 -7.6585 6.773 1 198 235 189
-6.1002 -7.5231 6.979 1 198 235 189
-6.1138 -7.5205 6.9832 1 198 235 189
-6.1278 -7.5184 6.9884 1 198 235 189
-6.141 -7.5154 6.9923 1 198 235 189
-6.1548 -7.5129 6.9963 1 198 235 189
-6.1696 -7.5117 7.0033 1 198 235 189
-6.1829 -7.5086 7.0071 1 198 235 189
-6.1964 -7.5058 7.0113 1 198 235 189
-6.2102 -7.5033 7.0163 1 198 235 189
-6.223 -7.4995 7.0238 1 198 235 189
-6.2357 -7.4957 7.0238 1 198 235 189
-6.2481 -7.4914 7.0267 1 198 235 189
-6.2605 -7.4871 7.0291 1 198 235 189
-6.2743 -7.4844 7.0386 1 198 235 189
-6.2873 -7.4809 7.0423 1 198 235 189
-6.3006 -7.4775 7.0475 1 198 235 189
-6.3147 -7.4753 7.0519 1 198 235 189
-6.3279 -7.4719 7.0515 1 198 235 189
-6.3411 -7.4684 7.0604 1 198 235 189
-6.354 -7.4645 7.0638 1 198 235 189
-6.3667 -7.4599 7.0677 1 198 235 189
-6.3795 -7.456 7.0711 1 198 235 189
-6.3924 -7.4525 7.0747 1 198 235 189
-6.4044 -7.4476 7.0777 1 198 235 189
-6.4162 -7.4423 7.0794 1 198 235 189
-6.4284 -7.4376 7.0835 1 198 235 189
-6.4397 -7.4318 7.0857 1 198 235 189
-1.0515 -8.4839 6.1436 1 198 235 189
-1.0619 -8.4806 6.1426 1 198 235 189
-1.0725 -8.4788 6.1419 1 198 235 189
-1.0832 -8.4777 6.1412 1 198 235 189
-1.0937 -8.4751 6.1416 1 198 235 189
-1.1042 -8.4731 6.1399 1 198 235 189
-1.1148 -8.4711 6.1399 1 198 235 189
-1.1254 -8.469 6.1397 1 198 235 189
-1.1359 -8.4668 6.1379 1 198 235 189
-1.1464 -8.4646 6.1395 1 198 235 189
-1.157 -8.4623 6.1364 1 198 235 189
