1.6643 -2.9487 0.9943 1 34 38 172
1.6626 -2.9546 0.9949 1 34 38 172
1.6615 -2.9612 0.9971 1 34 38 172
1.6607 -2.9687 0.9989 1 34 38 172
1.6592 -2.9747 0.9992 1 34 38 172
1.6581 -2.9816 1.0016 1 34 38 172
1.6569 -2.9882 1.0034 1 34 38 172
1.6552 -2.994 1.0044 1 34 38 172
1.654 -3.0007 1.0064 1 34 38 172
1.6525 -3.007 1.0073 1 34 38 172
1.651 -3.0132 1.009 1 34 38 172
1.6502 -3.0208 1.0107 1 34 38 172
1.6485 -3.0266 1.0117 1 34 38 172
1.6477 -3.034 1.0141 1 34 38 172
1.6464 -3.0407 1.0149 1 34 38 172
1.6451 -3.0475 1.0171 1 34 38 172
1.6433 -3.0535 1.0181 1 34 38 172
1.6422 -3.0607 1.0198 1 34 38 172
1.6409 -3.0676 1.0216 1 34 38 172
1.6398 -3.0748 1.0231 1 34 38 172
1.638 -3.0808 1.0248 1 34 38 172
1.6366 -3.0875 1.026 1 34 38 172
1.6355 -3.0947 1.0276 1 34 38 172
1.6344 -3.1018 1.0294 1 34 38 172
1.6326 -3.108 1.0307 1 34 38 172
1.6313 -3.1152 1.0327 1 34 38 172
1.6298 -3.1218 1.034 1 34 38 172
1.6286 -3.1291 1.0357 1 34 38 172
1.6272 -3.1361 1.0373 1 34 38 172
1.6259 -3.1429 1.0387 1 34 38 172
1.6244 -3.1499 1.0405 1 34 38 172
1.623 -3.1567 1.0418 1 34 38 172
1.6215 -3.1636 1.0438 1 34 38 172
1.62 -3.1709 1.0451 1 34 38 172
1.6189 -3.1784 1.0471 1 34 38 172
1.6175 -3.1855 1.0487 1 34 38 172
1.6162 -3.1926 1.0503 1 34 38 172
1.6144 -3.1992 1.0519 1 34 38 172
1.6133 -3.2073 1.0538 1 34 38 172
1.6112 -3.2132 1.0553 1 34 38 172
1.6103 -3.2212 1.0569 1 34 38 172
1.6087 -3.2284 1.0586 1 34 38 172
1.6076 -3.2364 1.0608 1 34 38 172
1.6058 -3.2429 1.0619 1 34 38 172
1.6046 -3.2507 1.0645 1 34 38 172
1.6034 -3.2587 1.0659 1 34 38 172
1.6018 -3.2658 1.0678 1 34 38 172
1.6004 -3.2733 1.0694 1 34 38 172
1.5987 -3.2803 1.0711 1 34 38 172
1.5971 -3.2874 1.073 1 34 38 172
1.5955 -3.2945 1.0742 1 34 38 172
1.5943 -3.3025 1.0764 1 34 38 172
1.5929 -3.3103 1.0783 1 34 38 172
1.5912 -3.3177 1.08 1 34 38 172
1.5897 -3.3251 1.0817 1 34 38 172
1.5879 -3.3319 1.0832 1 34 38 172
1.5868 -3.3407 1.0857 1 34 38 172
1.5853 -3.348 1.0869 1 34 38 172
1.5834 -3.355 1.0888 1 34 38 172
1.5821 -3.3633 1.0909 1 34 38 172
1.5801 -3.3703 1.0923 1 34 38 172
1.5788 -3.3785 1.0944 1 34 38 172
1.5771 -3.386 1.096 1 34 38 172
1.5756 -3.3938 1.098 1 34 38 172
1.5741 -3.4017 1.0999 1 34 38 172
1.5722 -3.4088 1.1014 1 34 38 172
1.5708 -3.4172 1.1037 1 34 38 172
1.5695 -3.4258 1.1055 1 34 38 172
1.5681 -3.4341 1.1081 1 34 38 172
1.566 -3.4408 1.1091 1 34 38 172
1.5643 -3.4487 1.1125 1 34 38 172
1.5625 -3.4561 1.1129 1 34 38 172
1.5611 -3.4643 1.1147 1 34 38 172
1.56 -3.4736 1.1175 1 34 38 172
1.5577 -3.4801 1.1189 1 34 38 172
1.5567 -3.4896 1.121 1 34 38 172
1.5549 -3.4974 1.1231 1 34 38 172
1.5537 -3.507 1.1265 1 34 38 172
1.5512 -3.5132 1.1269 1 34 38 172
1.5502 -3.5229 1.1292 1 34 38 172
1.5483 -3.5306 1.1325 1 34 38 172
1.5463 -3.5382 1.133 1 34 38 172
1.545 -3.5473 1.135 1 34 38 172
1.5435 -3.556 1.1376 1 34 38 172
1.5414 -3.5636 1.1403 1 34 38 172
1.6859 -2.8353 0.9633 1 34 38 172
1.6858 -2.8431 0.9648 1 34 38 172
1.6842 -2.8486 0.9675 1 34 38 172
1.6825 -2.8542 0.9673 1 34 38 172
1.682 -2.8613 0.9702 1 34 38 172
1.6805 -2.8669 0.9703 1 34 38 172
1.6791 -2.8729 0.9726 1 34 38 172
1.6785 -2.8803 0.9738 1 34 38 172
1.6769 -2.8859 0.9755 1 34 38 172
1.6756 -2.892 0.9761 1 34 38 172
1.6745 -2.8983 0.9771 1 34 38 172
1.6732 -2.9047 0.9801 1 34 38 172
1.6721 -2.911 0.9802 1 34 38 172
1.6709 -2.9174 0.9825 1 34 38 172
1.669 -2.9226 0.9829 1 34 38 172
1.6678 -2.929 0.984 1 34 38 172
1.6669 -2.9363 0.9868 1 34 38 172
1.6651 -2.9416 0.9868 1 34 38 172
1.6637 -2.9476 0.9893 1 34 38 172
1.6627 -2.9547 0.9903 1 34 38 172
1.6619 -2.9621 0.9927 1 34 38 172
1.6604 -2.968 0.994 1 34 38 172
1.6593 -2.9749 0.9945 1 34 38 172
1.6577 -2.9809 0.9967 1 34 38 172
1.6567 -2.9878 0.9986 1 34 38 172
1.6553 -2.9942 0.9998 1 34 38 172
1.6542 -3.0011 1.0017 1 34 38 172
1.6528 -3.0074 1.0028 1 34 38 172
1.6518 -3.0146 1.0047 1 34 38 172
1.6503 -3.021 1.006 1 34 38 172
1.6487 -3.027 1.0071 1 34 38 172
1.6474 -3.0335 1.0092 1 34 38 172
1.6455 -3.0391 1.0097 1 34 38 172
1.6448 -3.047 1.0122 1 34 38 172
1.6434 -3.0538 1.0136 1 34 38 172
1.6419 -3.0602 1.0149 1 34 38 172
1.6409 -3.0675 1.0168 1 34 38 172
1.6397 -3.0746 1.0182 1 34 38 172
1.6382 -3.081 1.02 1 34 38 172
1.6366 -3.0875 1.0213 1 34 38 172
1.6355 -3.0948 1.0229 1 34 38 172
1.6343 -3.1017 1.0246 1 34 38 172
1.6325 -3.1078 1.0257 1 34 38 172
1.6314 -3.1153 1.028 1 34 38 172
1.6294 -3.121 1.0288 1 34 38 172
1.6285 -3.1289 1.0309 1 34 38 172
1.6271 -3.1359 1.0324 1 34 38 172
1.6252 -3.1417 1.0335 1 34 38 172
1.6242 -3.1496 1.0356 1 34 38 172
1.6229 -3.1566 1.037 1 34 38 172
1.6214 -3.1635 1.0389 1 34 38 172
1.6199 -3.1707 1.0402 1 34 38 172
1.6189 -3.1785 1.0422 1 34 38 172
1.6172 -3.185 1.0438 1 34 38 172
1.616 -3.1924 1.0453 1 34 38 172
1.6142 -3.1987 1.047 1 34 38 172
1.6132 -3.207 1.0488 1 34 38 172
1.6114 -3.2136 1.0505 1 34 38 172
1.6103 -3.2211 1.0521 1 34 38 172
1.609 -3.2289 1.0539 1 34 38 172
1.6074 -3.236 1.0557 1 34 38 172
1.6056 -3.2425 1.0568 1 34 38 172
1.6046 -3.2508 1.0595 1 34 38 172
1.6027 -3.2573 1.0605 1 34 38 172
1.6018 -3.2658 1.0627 1 34 38 172
1.6001 -3.2727 1.0643 1 34 38 172
1.599 -3.2809 1.0662 1 34 38 172
1.5969 -3.287 1.0679 1 34 38 172
1.5957 -3.2948 1.0694 1 34 38 172
1.5938 -3.3014 1.0711 1 34 38 172
1.593 -3.3104 1.0734 1 34 38 172
1.5907 -3.3165 1.0745 1 34 38 172
1.5899 -3.3256 1.0768 1 34 38 172
1.5884 -3.3331 1.0786 1 34 38 172
1.5864 -3.3399 1.0802 1 34 38 172
1.5851 -3.3476 1.0817 1 34 38 172
1.5833 -3.3548 1.0836 1 34 38 172
1.5818 -3.3625 1.0856 1 34 38 172
1.5803 -3.3707 1.0874 1 34 38 172
1.5789 -3.3787 1.0894 1 34 38 172
1.5771 -3.3859 1.0907 1 34 38 172
1.5757 -3.3939 1.0931 1 34 38 172
1.5744 -3.4025 1.095 1 34 38 172
1.5723 -3.4091 1.0964 1 34 38 172
1.571 -3.4176 1.0988 1 34 38 172
1.5696 -3.4258 1.1005 1 34 38 172
1.5676 -3.4329 1.1025 1 34 38 172
1.5661 -3.4411 1.1039 1 34 38 172
1.5642 -3.4484 1.1073 1 34 38 172
1.5629 -3.4571 1.1082 1 34 38 172
1.5617 -3.4656 1.1099 1 34 38 172
1.5597 -3.4728 1.1121 1 34 38 172
1.5583 -3.4816 1.114 1 34 38 172
1.5565 -3.4892 1.1157 1 34 38 172
1.5545 -3.4967 1.1177 1 34 38 172
1.5532 -3.5058 1.1209 1 34 38 172
1.5514 -3.5137 1.1217 1 34 38 172
1.5497 -3.5218 1.1236 1 34 38 172
1.5484 -3.5309 1.1273 1 34 38 172
1.5465 -3.5387 1.1279 1 34 38 172
1.5449 -3.5471 1.1297 1 34 38 172
1.5434 -3.5557 1.1322 1 34 38 172
1.5415 -3.5636 1.1349 1 34 38 172
1.6872 -2.8375 0.9595 1 34 38 172
1.6853 -2.8423 0.9602 1 34 38 172
1.6844 -2.8489 0.9632 1 34 38 172
1.6837 -2.8561 0.9635 1 34 38 172
1.6815 -2.8604 0.9654 1 34 38 172
1.6804 -2.8668 0.9657 1 34 38 172
1.6795 -2.8735 0.9683 1 34 38 172
1.678 -2.8794 0.969 1 34 38 172
1.6767 -2.8855 0.9708 1 34 38 172
1.6755 -2.8919 0.9715 1 34 38 172
1.6741 -2.8976 0.9723 1 34 38 172
1.6728 -2.904 0.9753 1 34 38 172
1.6718 -2.9104 0.9754 1 34 38 172
1.6708 -2.9172 0.9778 1 34 38 172
1.6692 -2.9229 0.9784 1 34 38 172
1.6677 -2.9288 0.9793 1 34 38 172
1.6671 -2.9367 0.9823 1 34 38 172
1.6653 -2.942 0.9824 1 34 38 172
1.6639 -2.9481 0.985 1 34 38 172
1.6625 -2.9543 0.9855 1 34 38 172
1.662 -2.9622 0.9881 1 34 38 172
1.6603 -2.9679 0.9893 1 34 38 172
1.6594 -2.9752 0.9899 1 34 38 172
1.658 -2.9813 0.9922 1 34 38 172
1.6569 -2.9882 0.9941 1 34 38 172
1.6557 -2.9949 0.9954 1 34 38 172
1.6542 -3.0011 0.9972 1 34 38 172
1.653 -3.0078 0.9982 1 34 38 172
1.6512 -3.0135 0.9997 1 34 38 172
1.6502 -3.0207 1.0012 1 34 38 172
1.6488 -3.0272 1.0025 1 34 38 172
1.6474 -3.0335 1.0045 1 34 38 172
1.6465 -3.0408 1.0055 1 34 38 172
1.6451 -3.0474 1.0076 1 34 38 172
1.6438 -3.0544 1.0091 1 34 38 172
1.6425 -3.0613 1.0106 1 34 38 172
1.6414 -3.0684 1.0124 1 34 38 172
1.6394 -3.0741 1.0133 1 34 38 172
1.638 -3.0806 1.0152 1 34 38 172
1.637 -3.0882 1.0167 1 34 38 172
1.6354 -3.0946 1.0181 1 34 38 172
1.634 -3.101 1.0196 1 34 38 172
1.6327 -3.1081 1.0212 1 34 38 172
1.6312 -3.1151 1.0231 1 34 38 172
1.6299 -3.122 1.0245 1 34 38 172
1.6287 -3.1293 1.0262 1 34 38 172
1.6275 -3.1366 1.0278 1 34 38 172
1.626 -3.1432 1.0292 1 34 38 172
1.6243 -3.1499 1.0308 1 34 38 172
1.6226 -3.1561 1.0319 1 34 38 172
1.6219 -3.1643 1.0343 1 34 38 172
1.6201 -3.1709 1.0354 1 34 38 172
1.6187 -3.178 1.0373 1 34 38 172
1.6171 -3.1848 1.0388 1 34 38 172
1.6156 -3.1916 1.0402 1 34 38 172
1.6142 -3.1988 1.042 1 34 38 172
1.6129 -3.2064 1.0437 1 34 38 172
1.6117 -3.2142 1.0458 1 34 38 172
1.6104 -3.2213 1.0473 1 34 38 172
1.6088 -3.2284 1.0488 1 34 38 172
1.6077 -3.2364 1.051 1 34 38 172
1.6056 -3.2425 1.0519 1 34 38 172
1.6047 -3.2509 1.0547 1 34 38 172
1.6031 -3.258 1.0558 1 34 38 172
1.6015 -3.2652 1.0577 1 34 38 172
1.5987 -3.2803 1.0611 1 34 38 172
1.597 -3.2872 1.063 1 34 38 172
1.596 -3.2954 1.0645 1 34 38 172
1.5945 -3.303 1.0665 1 34 38 172
1.5928 -3.3101 1.0683 1 34 38 172
1.5911 -3.3173 1.0699 1 34 38 172
1.5899 -3.3253 1.0717 1 34 38 172
1.5884 -3.3329 1.0735 1 34 38 172
1.5868 -3.3408 1.0756 1 34 38 172
1.5851 -3.3476 1.0767 1 34 38 172
1.5839 -3.356 1.079 1 34 38 172
1.5818 -3.3625 1.0806 1 34 38 172
1.5802 -3.3704 1.0822 1 34 38 172
1.5789 -3.3788 1.0844 1 34 38 172
1.577 -3.3856 1.0857 1 34 38 172
1.5757 -3.394 1.0879 1 34 38 172
1.5739 -3.4013 1.0895 1 34 38 172
1.5722 -3.409 1.0912 1 34 38 172
1.5715 -3.4187 1.094 1 34 38 172
1.5696 -3.4258 1.0954 1 34 38 172
1.568 -3.4339 1.0977 1 34 38 172
1.5662 -3.4413 1.0989 1 34 38 172
1.5646 -3.4492 1.1024 1 34 38 172
1.5631 -3.4575 1.103 1 34 38 172
1.5617 -3.4656 1.1048 1 34 38 172
1.5597 -3.473 1.1069 1 34 38 172
1.5585 -3.482 1.1091 1 34 38 172
1.5568 -3.49 1.1107 1 34 38 172
1.5552 -3.4982 1.113 1 34 38 172
1.5534 -3.5063 1.1158 1 34 38 172
1.5515 -3.5139 1.1167 1 34 38 172
1.5498 -3.5221 1.1184 1 34 38 172
1.5484 -3.5308 1.122 1 34 38 172
1.5465 -3.5387 1.1226 1 34 38 172
1.5449 -3.5471 1.1245 1 34 38 172
1.5432 -3.5554 1.1269 1 34 38 172
1.5416 -3.5639 1.1298 1 34 38 172
1.6862 -2.8359 0.9545 1 34 38 172
1.6856 -2.8428 0.9559 1 34 38 172
1.6843 -2.8488 0.9585 1 34 38 172
1.6829 -2.8548 0.9586 1 34 38 172
1.6818 -2.8609 0.9611 1 34 38 172
1.6805 -2.867 0.9613 1 34 38 172
1.6797 -2.8738 0.9639 1 34 38 172
1.6785 -2.8803 0.9647 1 34 38 172
1.6768 -2.8857 0.9663 1 34 38 172
1.6753 -2.8915 0.9669 1 34 38 172
1.6743 -2.8979 0.9678 1 34 38 172
1.6731 -2.9045 0.9709 1 34 38 172
1.672 -2.9108 0.971 1 34 38 172
1.6707 -2.9171 0.9732 1 34 38 172
1.6696 -2.9236 0.9741 1 34 38 172
1.6679 -2.9293 0.9749 1 34 38 172
1.667 -2.9365 0.9776 1 34 38 172
1.6656 -2.9426 0.9779 1 34 38 172
1.665 -2.95 0.9809 1 34 38 172
1.6627 -2.9546 0.981 1 34 38 172
1.6617 -2.9617 0.9834 1 34 38 172
1.6606 -2.9684 0.9849 1 34 38 172
1.6589 -2.9741 0.9849 1 34 38 172
1.6578 -2.9811 0.9875 1 34 38 172
1.6566 -2.9876 0.9892 1 34 38 172
1.6555 -2.9946 0.9906 1 34 38 172
1.6538 -3.0003 0.9921 1 34 38 172
1.6531 -3.0081 0.9937 1 34 38 172
1.6514 -3.014 0.9952 1 34 38 172
1.6507 -3.0216 0.9969 1 34 38 172
1.6486 -3.0268 0.9977 1 34 38 172
1.6473 -3.0333 0.9998 1 34 38 172
1.6465 -3.0409 1.0009 1 34 38 172
1.6452 -3.0476 1.003 1 34 38 172
1.6431 -3.0531 1.004 1 34 38 172
1.6421 -3.0605 1.0056 1 34 38 172
1.6408 -3.0674 1.0073 1 34 38 172
1.6395 -3.0742 1.0086 1 34 38 172
1.6382 -3.0811 1.0105 1 34 38 172
1.6371 -3.0884 1.012 1 34 38 172
1.6352 -3.0942 1.0131 1 34 38 172
1.6339 -3.1009 1.0148 1 34 38 172
1.6326 -3.1079 1.0163 1 34 38 172
1.6309 -3.1144 1.0181 1 34 38 172
1.6302 -3.1226 1.0198 1 34 38 172
1.6284 -3.1288 1.0212 1 34 38 172
1.6273 -3.1359 1.0228 1 34 38 172
1.6255 -3.1422 1.024 1 34 38 172
1.6241 -3.1495 1.0258 1 34 38 172
1.6235 -3.1577 1.0276 1 34 38 172
1.6219 -3.1645 1.0295 1 34 38 172
1.6201 -3.171 1.0305 1 34 38 172
1.6185 -3.1776 1.0322 1 34 38 172
1.6177 -3.1859 1.0344 1 34 38 172
1.616 -3.1924 1.0356 1 34 38 172
1.6147 -3.1998 1.0376 1 34 38 172
1.6133 -3.2072 1.0391 1 34 38 172
1.6119 -3.2146 1.041 1 34 38 172
1.6106 -3.2217 1.0425 1 34 38 172
1.6086 -3.2281 1.0439 1 34 38 172
1.6074 -3.2358 1.0458 1 34 38 172
1.6057 -3.2428 1.0471 1 34 38 172
1.6044 -3.2503 1.0494 1 34 38 172
1.6028 -3.2574 1.0506 1 34 38 172
1.6016 -3.2653 1.0526 1 34 38 172
1.6001 -3.2726 1.0543 1 34 38 172
1.5989 -3.2806 1.0563 1 34 38 172
1.597 -3.2872 1.058 1 34 38 172
1.5956 -3.2946 1.0594 1 34 38 172
1.5944 -3.3028 1.0616 1 34 38 172
1.5928 -3.31 1.0633 1 34 38 172
1.5907 -3.3166 1.0645 1 34 38 172
1.589 -3.3235 1.0662 1 34 38 172
1.5882 -3.3325 1.0684 1 34 38 172
1.5869 -3.3408 1.0704 1 34 38 172
1.5849 -3.3472 1.0716 1 34 38 172
1.583 -3.3543 1.0734 1 34 38 172
1.5821 -3.3632 1.0757 1 34 38 172
1.5804 -3.3709 1.0773 1 34 38 172
1.5783 -3.3774 1.0788 1 34 38 172
1.5775 -3.3869 1.0809 1 34 38 172
1.5756 -3.3938 1.0828 1 34 38 172
1.5744 -3.4025 1.0848 1 34 38 172
1.5728 -3.4102 1.0865 1 34 38 172
1.571 -3.4175 1.0885 1 34 38 172
1.5697 -3.4262 1.0904 1 34 38 172
1.5674 -3.4326 1.0923 1 34 38 172
1.5662 -3.4413 1.0938 1 34 38 172
1.5646 -3.4492 1.0972 1 34 38 172
1.5631 -3.4576 1.098 1 34 38 172
1.5616 -3.4654 1.0995 1 34 38 172
1.5595 -3.4726 1.1016 1 34 38 172
1.5578 -3.4804 1.1034 1 34 38 172
1.5568 -3.49 1.1055 1 34 38 172
1.555 -3.4976 1.1076 1 34 38 172
1.5534 -3.5063 1.1106 1 34 38 172
1.5518 -3.5144 1.1115 1 34 38 172
1.5499 -3.5221 1.1132 1 34 38 172
1.5485 -3.531 1.1168 1 34 38 172
1.5471 -3.54 1.1177 1 34 38 172
1.5449 -3.5471 1.1191 1 34 38 172
1.5431 -3.5551 1.1214 1 34 38 172
1.5415 -3.5638 1.1243 1 34 38 172
1.6866 -2.8365 0.9503 1 34 38 172
1.6855 -2.8427 0.9513 1 34 38 172
1.6839 -2.8481 0.9539 1 34 38 172
1.6827 -2.8544 0.9539 1 34 38 172
1.6816 -2.8607 0.9565 1 34 38 172
1.6805 -2.867 0.9567 1 34 38 172
1.6795 -2.8735 0.9592 1 34 38 172
1.678 -2.8794 0.9599 1 34 38 172
1.6765 -2.8853 0.9616 1 34 38 172
1.6756 -2.8919 0.9626 1 34 38 172
1.6741 -2.8976 0.9632 1 34 38 172
1.6732 -2.9046 0.9664 1 34 38 172
1.6718 -2.9105 0.9664 1 34 38 172
1.6705 -2.9167 0.9685 1 34 38 172
1.6692 -2.9229 0.9693 1 34 38 172
1.668 -2.9293 0.9704 1 34 38 172
1.667 -2.9364 0.973 1 34 38 172
1.6654 -2.9422 0.9732 1 34 38 172
1.6644 -2.9489 0.976 1 34 38 172
1.6635 -2.956 0.9769 1 34 38 172
1.6614 -2.9612 0.9786 1 34 38 172
1.6609 -2.969 0.9805 1 34 38 172
1.6586 -2.9736 0.9802 1 34 38 172
1.6579 -2.9812 0.9829 1 34 38 172
1.6566 -2.9877 0.9847 1 34 38 172
1.6558 -2.9951 0.9862 1 34 38 172
1.6536 -3 0.9875 1 34 38 172
1.6529 -3.0076 0.9888 1 34 38 172
1.6512 -3.0136 0.9903 1 34 38 172
1.6504 -3.0211 0.992 1 34 38 172
1.6485 -3.0266 0.9929 1 34 38 172
1.6478 -3.0343 0.9954 1 34 38 172
1.6465 -3.0409 0.9961 1 34 38 172
1.6449 -3.0471 0.9981 1 34 38 172
1.6431 -3.0532 0.9992 1 34 38 172
1.642 -3.0604 1.0008 1 34 38 172
1.6406 -3.0669 1.0024 1 34 38 172
1.6394 -3.0739 1.0038 1 34 38 172
1.6382 -3.0811 1.0058 1 34 38 172
1.6369 -3.088 1.0072 1 34 38 172
1.6355 -3.0947 1.0085 1 34 38 172
1.6341 -3.1013 1.0102 1 34 38 172
1.6314 -3.1154 1.0136 1 34 38 172
1.6303 -3.1226 1.0151 1 34 38 172
1.6282 -3.1284 1.0163 1 34 38 172
1.6271 -3.1357 1.0179 1 34 38 172
1.6254 -3.142 1.0191 1 34 38 172
1.6243 -3.1498 1.0211 1 34 38 172
1.623 -3.1567 1.0225 1 34 38 172
1.6216 -3.1638 1.0245 1 34 38 172
1.6205 -3.1718 1.026 1 34 38 172
1.6189 -3.1785 1.0278 1 34 38 172
1.6173 -3.1852 1.0293 1 34 38 172
1.6159 -3.1922 1.0307 1 34 38 172
1.615 -3.2004 1.0328 1 34 38 172
1.6131 -3.2069 1.0341 1 34 38 172
1.6115 -3.2137 1.0359 1 34 38 172
1.6101 -3.2207 1.0372 1 34 38 172
1.6092 -3.2293 1.0392 1 34 38 172
1.6073 -3.2357 1.0409 1 34 38 172
1.6061 -3.2435 1.0424 1 34 38 172
1.6047 -3.2509 1.0448 1 34 38 172
1.6028 -3.2575 1.0457 1 34 38 172
1.6014 -3.265 1.0477 1 34 38 172
1.5996 -3.2716 1.0492 1 34 38 172
1.5985 -3.2798 1.051 1 34 38 172
1.5971 -3.2874 1.0531 1 34 38 172
1.5959 -3.2953 1.0545 1 34 38 172
1.594 -3.3018 1.0562 1 34 38 172
1.5928 -3.3101 1.0582 1 34 38 172
1.5908 -3.3167 1.0596 1 34 38 172
1.5896 -3.3247 1.0614 1 34 38 172
1.5883 -3.3327 1.0634 1 34 38 172
1.5868 -3.3408 1.0655 1 34 38 172
1.5854 -3.3484 1.0668 1 34 38 172
1.5833 -3.3549 1.0685 1 34 38 172
1.5818 -3.3626 1.0705 1 34 38 172
1.5804 -3.3709 1.0722 1 34 38 172
1.5791 -3.3791 1.0743 1 34 38 172
1.5778 -3.3875 1.0761 1 34 38 172
1.576 -3.3946 1.0779 1 34 38 172
1.5747 -3.403 1.08 1 34 38 172
1.5723 -3.4092 1.0811 1 34 38 172
1.5709 -3.4174 1.0833 1 34 38 172
1.5689 -3.4243 1.0846 1 34 38 172
1.5677 -3.4332 1.0872 1 34 38 172
1.5659 -3.4406 1.0884 1 34 38 172
1.5645 -3.449 1.092 1 34 38 172
1.563 -3.4573 1.0926 1 34 38 172
1.5615 -3.4653 1.0944 1 34 38 172
1.5598 -3.4732 1.0966 1 34 38 172
1.5585 -3.4819 1.0986 1 34 38 172
1.5568 -3.4899 1.1003 1 34 38 172
1.5549 -3.4975 1.1023 1 34 38 172
1.5532 -3.5057 1.1052 1 34 38 172
1.5515 -3.5138 1.1062 1 34 38 172
1.55 -3.5224 1.108 1 34 38 172
1.5483 -3.5306 1.1115 1 34 38 172
1.5471 -3.54 1.1125 1 34 38 172
1.5451 -3.5476 1.114 1 34 38 172
1.5434 -3.5559 1.1165 1 34 38 172
1.5418 -3.5645 1.1194 1 34 38 172
1.6871 -2.8374 0.946 1 34 38 172
1.6855 -2.8427 0.9468 1 34 38 172
1.6841 -2.8484 0.9494 1 34 38 172
1.683 -2.855 0.9495 1 34 38 172
1.6819 -2.861 0.9521 1 34 38 172
1.6804 -2.8667 0.9521 1 34 38 172
1.6791 -2.8728 0.9545 1 34 38 172
1.6778 -2.8791 0.9553 1 34 38 172
1.6767 -2.8856 0.9572 1 34 38 172
1.6755 -2.8919 0.9579 1 34 38 172
1.6747 -2.8986 0.9591 1 34 38 172
1.6732 -2.9047 0.9619 1 34 38 172
1.6719 -2.9107 0.9618 1 34 38 172
1.6709 -2.9174 0.9641 1 34 38 172
1.6692 -2.923 0.9647 1 34 38 172
1.6678 -2.929 0.9657 1 34 38 172
1.6666 -2.9358 0.9682 1 34 38 172
1.6653 -2.942 0.9685 1 34 38 172
1.6643 -2.9488 0.9713 1 34 38 172
1.6632 -2.9555 0.9721 1 34 38 172
1.6615 -2.9614 0.974 1 34 38 172
1.6606 -2.9683 0.9756 1 34 38 172
1.6589 -2.9741 0.9758 1 34 38 172
1.658 -2.9814 0.9783 1 34 38 172
1.6564 -2.9873 0.9798 1 34 38 172
1.6555 -2.9946 0.9813 1 34 38 172
1.6538 -3.0005 0.983 1 34 38 172
1.6529 -3.0076 0.9842 1 34 38 172
1.6512 -3.0135 0.9856 1 34 38 172
1.6502 -3.0207 0.9872 1 34 38 172
1.6488 -3.0272 0.9884 1 34 38 172
1.647 -3.0328 0.9903 1 34 38 172
1.6462 -3.0404 0.9913 1 34 38 172
1.6455 -3.0482 0.9937 1 34 38 172
1.6435 -3.0539 0.9948 1 34 38 172
1.6426 -3.0615 0.9965 1 34 38 172
1.6407 -3.0673 0.9978 1 34 38 172
1.6394 -3.0739 0.999 1 34 38 172
1.6381 -3.0808 1.001 1 34 38 172
1.6368 -3.0878 1.0023 1 34 38 172
1.6355 -3.0948 1.0039 1 34 38 172
1.634 -3.1011 1.0053 1 34 38 172
1.6323 -3.1073 1.0066 1 34 38 172
1.6318 -3.1161 1.0091 1 34 38 172
1.6299 -3.1218 1.0099 1 34 38 172
1.6284 -3.1288 1.0116 1 34 38 172
1.6272 -3.1358 1.0131 1 34 38 172
1.6261 -3.1433 1.0148 1 34 38 172
1.6243 -3.1499 1.0163 1 34 38 172
1.623 -3.1567 1.0176 1 34 38 172
1.6215 -3.1636 1.0196 1 34 38 172
1.6198 -3.1704 1.0207 1 34 38 172
1.6187 -3.1781 1.0227 1 34 38 172
1.6177 -3.1859 1.0247 1 34 38 172
1.6162 -3.1927 1.026 1 34 38 172
1.6145 -3.1994 1.0277 1 34 38 172
1.613 -3.2067 1.0291 1 34 38 172
1.6115 -3.2136 1.031 1 34 38 172
1.6103 -3.2211 1.0325 1 34 38 172
1.6087 -3.2283 1.0341 1 34 38 172
1.6076 -3.2364 1.0362 1 34 38 172
1.6057 -3.2427 1.0372 1 34 38 172
1.6046 -3.2508 1.0398 1 34 38 172
1.603 -3.2578 1.0408 1 34 38 172
1.6016 -3.2654 1.0428 1 34 38 172
1.6002 -3.2728 1.0445 1 34 38 172
1.5985 -3.2799 1.0461 1 34 38 172
1.5971 -3.2874 1.0481 1 34 38 172
1.5959 -3.2953 1.0496 1 34 38 172
1.5943 -3.3026 1.0515 1 34 38 172
1.5929 -3.3102 1.0533 1 34 38 172
1.5914 -3.3181 1.055 1 34 38 172
1.5898 -3.3251 1.0567 1 34 38 172
1.5881 -3.3323 1.0583 1 34 38 172
1.5864 -3.3398 1.06 1 34 38 172
1.5852 -3.348 1.0618 1 34 38 172
1.584 -3.3562 1.0639 1 34 38 172
1.582 -3.363 1.0655 1 34 38 172
1.5806 -3.3714 1.0673 1 34 38 172
1.5792 -3.3794 1.0694 1 34 38 172
1.5775 -3.3867 1.0706 1 34 38 172
1.576 -3.3947 1.0729 1 34 38 172
1.5743 -3.4023 1.0746 1 34 38 172
1.5732 -3.411 1.0766 1 34 38 172
1.571 -3.4177 1.0783 1 34 38 172
1.5694 -3.4255 1.0799 1 34 38 172
1.568 -3.4338 1.0823 1 34 38 172
1.5662 -3.4414 1.0835 1 34 38 172
1.5642 -3.4485 1.0867 1 34 38 172
1.5634 -3.4578 1.0877 1 34 38 172
1.5614 -3.465 1.089 1 34 38 172
1.56 -3.4737 1.0916 1 34 38 172
1.5585 -3.482 1.0935 1 34 38 172
1.5569 -3.4901 1.0951 1 34 38 172
1.5552 -3.4981 1.0973 1 34 38 172
1.5533 -3.506 1.1002 1 34 38 172
1.5519 -3.5147 1.1011 1 34 38 172
1.5503 -3.523 1.103 1 34 38 172
1.5481 -3.5301 1.1061 1 34 38 172
1.5469 -3.5395 1.1071 1 34 38 172
1.5452 -3.5478 1.1088 1 34 38 172
1.5433 -3.5556 1.111 1 34 38 172
1.5417 -3.5641 1.1139 1 34 38 172
1.6866 -2.8365 0.9413 1 34 38 172
1.6856 -2.8428 0.9424 1 34 38 172
1.684 -2.8482 0.9449 1 34 38 172
1.6834 -2.8557 0.9453 1 34 38 172
1.6815 -2.8604 0.9473 1 34 38 172
1.6805 -2.867 0.9477 1 34 38 172
1.6789 -2.8724 0.9498 1 34 38 172
1.6775 -2.8786 0.9506 1 34 38 172
1.6765 -2.8852 0.9525 1 34 38 172
1.6757 -2.8919 0.9534 1 34 38 172
1.6742 -2.8978 0.9542 1 34 38 172
1.6733 -2.9048 0.9574 1 34 38 172
1.6714 -2.9098 0.957 1 34 38 172
1.6708 -2.9172 0.9595 1 34 38 172
1.6691 -2.9228 0.9601 1 34 38 172
1.6684 -2.9301 0.9614 1 34 38 172
1.6669 -2.9363 0.9638 1 34 38 172
1.6655 -2.9424 0.9641 1 34 38 172
1.6645 -2.9491 0.9669 1 34 38 172
1.663 -2.955 0.9673 1 34 38 172
1.6616 -2.9615 0.9694 1 34 38 172
1.6607 -2.9683 0.971 1 34 38 172
1.6589 -2.9741 0.971 1 34 38 172
1.6578 -2.981 0.9735 1 34 38 172
1.6564 -2.9873 0.9753 1 34 38 172
1.6554 -2.9943 0.9766 1 34 38 172
1.654 -3.0008 0.9784 1 34 38 172
1.6531 -3.0081 0.9797 1 34 38 172
1.6512 -3.0136 0.981 1 34 38 172
1.6504 -3.0212 0.9827 1 34 38 172
1.6487 -3.027 0.9837 1 34 38 172
1.6476 -3.0338 0.9858 1 34 38 172
1.6463 -3.0405 0.9866 1 34 38 172
1.6448 -3.047 0.9886 1 34 38 172
1.6436 -3.0541 0.9901 1 34 38 172
1.6423 -3.061 0.9916 1 34 38 172
1.6409 -3.0676 0.9932 1 34 38 172
1.6393 -3.0738 0.9943 1 34 38 172
1.6381 -3.0809 0.9963 1 34 38 172
1.6365 -3.0872 0.9974 1 34 38 172
1.6358 -3.0953 0.9992 1 34 38 172
1.6342 -3.1015 1.0007 1 34 38 172
1.6328 -3.1083 1.0021 1 34 38 172
1.6313 -3.1152 1.004 1 34 38 172
1.63 -3.122 1.0053 1 34 38 172
1.6285 -3.1289 1.0068 1 34 38 172
1.6277 -3.1368 1.0086 1 34 38 172
1.6262 -3.1436 1.0101 1 34 38 172
1.6246 -3.1505 1.0117 1 34 38 172
1.623 -3.1568 1.0129 1 34 38 172
1.6211 -3.1628 1.0145 1 34 38 172
1.62 -3.1707 1.016 1 34 38 172
1.619 -3.1786 1.0181 1 34 38 172
1.6178 -3.1862 1.0199 1 34 38 172
1.616 -3.1924 1.021 1 34 38 172
1.6146 -3.1995 1.0228 1 34 38 172
1.6133 -3.2073 1.0245 1 34 38 172
1.612 -3.2148 1.0264 1 34 38 172
1.6106 -3.2218 1.0277 1 34 38 172
1.6089 -3.2287 1.0293 1 34 38 172
1.6075 -3.2361 1.0312 1 34 38 172
1.6058 -3.243 1.0324 1 34 38 172
1.6047 -3.251 1.035 1 34 38 172
1.6031 -3.258 1.036 1 34 38 172
1.6013 -3.2647 1.0377 1 34 38 172
1.5999 -3.2723 1.0395 1 34 38 172
1.5987 -3.2802 1.0412 1 34 38 172
1.5971 -3.2874 1.0431 1 34 38 172
1.5954 -3.2942 1.0442 1 34 38 172
1.5943 -3.3026 1.0464 1 34 38 172
1.5928 -3.31 1.0483 1 34 38 172
1.5912 -3.3176 1.0499 1 34 38 172
1.5898 -3.3251 1.0515 1 34 38 172
1.5885 -3.3331 1.0534 1 34 38 172
1.5865 -3.34 1.0552 1 34 38 172
1.5854 -3.3484 1.0568 1 34 38 172
1.5838 -3.3559 1.0589 1 34 38 172
1.5822 -3.3634 1.0606 1 34 38 172
1.5801 -3.3702 1.0619 1 34 38 172
1.5787 -3.3783 1.0639 1 34 38 172
1.5772 -3.3861 1.0655 1 34 38 172
1.5762 -3.3951 1.0678 1 34 38 172
1.5745 -3.4027 1.0697 1 34 38 172
1.5731 -3.4108 1.0714 1 34 38 172
1.5713 -3.4183 1.0734 1 34 38 172
1.5691 -3.4248 1.0746 1 34 38 172
1.568 -3.4338 1.0773 1 34 38 172
1.5662 -3.4412 1.0783 1 34 38 172
1.5645 -3.4489 1.0817 1 34 38 172
1.5633 -3.4577 1.0824 1 34 38 172
1.5616 -3.4656 1.0841 1 34 38 172
1.56 -3.4735 1.0864 1 34 38 172
1.5585 -3.4819 1.0883 1 34 38 172
1.5566 -3.4895 1.0898 1 34 38 172
1.5553 -3.4983 1.0922 1 34 38 172
1.5536 -3.5066 1.0951 1 34 38 172
1.5519 -3.5149 1.0961 1 34 38 172
1.5498 -3.5221 1.0975 1 34 38 172
1.5483 -3.5305 1.1009 1 34 38 172
1.5465 -3.5385 1.1015 1 34 38 172
1.5452 -3.5477 1.1035 1 34 38 172
1.5436 -3.5562 1.1061 1 34 38 172
1.5415 -3.5638 1.1086 1 34 38 172
1.6865 -2.8364 0.9367 1 34 38 172
1.6856 -2.8428 0.9379 1 34 38 172
1.6842 -2.8486 0.9406 1 34 38 172
1.6829 -2.8548 0.9405 1 34 38 172
1.6817 -2.8608 0.943 1 34 38 172
1.6806 -2.8672 0.9434 1 34 38 172
1.6796 -2.8737 0.9457 1 34 38 172
1.6782 -2.8796 0.9464 1 34 38 172
1.6771 -2.8863 0.9483 1 34 38 172
1.6757 -2.8919 0.949 1 34 38 172
1.6741 -2.8976 0.9497 1 34 38 172
1.673 -2.9043 0.9526 1 34 38 172
1.6717 -2.9103 0.9526 1 34 38 172
1.6703 -2.9164 0.9547 1 34 38 172
1.6694 -2.9233 0.9557 1 34 38 172
1.6683 -2.93 0.9568 1 34 38 172
1.6664 -2.9354 0.9589 1 34 38 172
1.6656 -2.9426 0.9595 1 34 38 172
1.6647 -2.9494 0.9623 1 34 38 172
1.6627 -2.9546 0.9626 1 34 38 172
1.6614 -2.9611 0.9647 1 34 38 172
1.6603 -2.9677 0.9662 1 34 38 172
1.6586 -2.9737 0.9664 1 34 38 172
1.6582 -2.9817 0.9691 1 34 38 172
1.6568 -2.988 0.9707 1 34 38 172
1.6561 -2.9956 0.9723 1 34 38 172
1.6539 -3.0005 0.9737 1 34 38 172
1.6529 -3.0077 0.9749 1 34 38 172
1.6516 -3.0142 0.9765 1 34 38 172
1.65 -3.0203 0.9777 1 34 38 172
1.649 -3.0276 0.9792 1 34 38 172
1.6475 -3.0337 0.9812 1 34 38 172
1.6464 -3.0407 0.982 1 34 38 172
1.6452 -3.0477 0.9841 1 34 38 172
1.6434 -3.0537 0.9853 1 34 38 172
1.6421 -3.0606 0.9867 1 34 38 172
1.6412 -3.0681 0.9886 1 34 38 172
1.639 -3.0733 0.9894 1 34 38 172
1.6383 -3.0812 0.9917 1 34 38 172
1.6368 -3.0879 0.9929 1 34 38 172
1.6356 -3.095 0.9945 1 34 38 172
1.6345 -3.102 0.9961 1 34 38 172
1.6329 -3.1086 0.9974 1 34 38 172
1.6312 -3.1149 0.9991 1 34 38 172
1.6302 -3.1224 1.0005 1 34 38 172
1.6287 -3.1294 1.0022 1 34 38 172
1.6271 -3.1357 1.0036 1 34 38 172
1.6256 -3.1424 1.0048 1 34 38 172
1.6244 -3.15 1.0068 1 34 38 172
1.6231 -3.157 1.0081 1 34 38 172
1.6219 -3.1645 1.0102 1 34 38 172
1.6202 -3.1712 1.0112 1 34 38 172
1.6183 -3.1773 1.0127 1 34 38 172
1.6173 -3.1852 1.0147 1 34 38 172
1.6161 -3.1925 1.0162 1 34 38 172
1.6146 -3.1995 1.018 1 34 38 172
1.6132 -3.207 1.0195 1 34 38 172
1.6116 -3.2139 1.0213 1 34 38 172
1.6108 -3.2222 1.023 1 34 38 172
1.6089 -3.2284 1.0244 1 34 38 172
1.6076 -3.2363 1.0263 1 34 38 172
1.6059 -3.2431 1.0275 1 34 38 172
1.6046 -3.2508 1.0299 1 34 38 172
1.6034 -3.2586 1.0313 1 34 38 172
1.6017 -3.2655 1.0329 1 34 38 172
1.6003 -3.2731 1.0347 1 34 38 172
1.5984 -3.2796 1.0361 1 34 38 172
1.5973 -3.2879 1.0383 1 34 38 172
1.5955 -3.2943 1.0394 1 34 38 172
1.5942 -3.3023 1.0415 1 34 38 172
1.5926 -3.3096 1.0432 1 34 38 172
1.5911 -3.3175 1.0448 1 34 38 172
1.59 -3.3256 1.0468 1 34 38 172
1.5883 -3.3328 1.0485 1 34 38 172
1.5865 -3.34 1.0501 1 34 38 172
1.5848 -3.347 1.0514 1 34 38 172
1.5839 -3.356 1.0538 1 34 38 172
1.5823 -3.3637 1.0556 1 34 38 172
1.5805 -3.3712 1.0571 1 34 38 172
1.5789 -3.3787 1.0591 1 34 38 172
1.5775 -3.3869 1.0605 1 34 38 172
1.5756 -3.3939 1.0625 1 34 38 172
1.5744 -3.4025 1.0645 1 34 38 172
1.5724 -3.4094 1.0659 1 34 38 172
1.571 -3.4176 1.0681 1 34 38 172
1.5694 -3.4255 1.0697 1 34 38 172
1.5684 -3.4346 1.0724 1 34 38 172
1.5658 -3.4404 1.073 1 34 38 172
1.5648 -3.4497 1.0768 1 34 38 172
1.5629 -3.4569 1.0771 1 34 38 172
1.5614 -3.465 1.0787 1 34 38 172
1.5599 -3.4735 1.0812 1 34 38 172
1.5581 -3.481 1.0828 1 34 38 172
1.5566 -3.4895 1.0847 1 34 38 172
1.5551 -3.498 1.087 1 34 38 172
1.5535 -3.5064 1.0899 1 34 38 172
1.5516 -3.5141 1.0906 1 34 38 172
1.5504 -3.5233 1.0926 1 34 38 172
1.5485 -3.531 1.0959 1 34 38 172
1.5468 -3.5393 1.0965 1 34 38 172
1.5448 -3.5469 1.098 1 34 38 172
1.5432 -3.5553 1.1004 1 34 38 172
1.5411 -3.5628 1.1029 1 34 38 172
1.6865 -2.8364 0.9323 1 34 38 172
1.6853 -2.8423 0.9332 1 34 38 172
1.684 -2.8483 0.936 1 34 38 172
1.6831 -2.8551 0.9362 1 34 38 172
1.6823 -2.8618 0.9388 1 34 38 172
1.6802 -2.8665 0.9385 1 34 38 172
1.679 -2.8726 0.9408 1 34 38 172
1.6783 -2.8798 0.9419 1 34 38 172
1.6757 -2.892 0.9445 1 34 38 172
1.6745 -2.8983 0.9452 1 34 38 172
1.6719 -2.9107 0.9483 1 34 38 172
1.6703 -2.9163 0.9501 1 34 38 172
1.6697 -2.9238 0.9513 1 34 38 172
1.668 -2.9294 0.9521 1 34 38 172
1.667 -2.9364 0.9547 1 34 38 172
1.6658 -2.9429 0.9551 1 34 38 172
1.6645 -2.949 0.9576 1 34 38 172
1.6633 -2.9555 0.9583 1 34 38 172
1.6616 -2.9614 0.9602 1 34 38 172
1.6607 -2.9684 0.9618 1 34 38 172
1.6589 -2.9742 0.9619 1 34 38 172
1.6581 -2.9816 0.9645 1 34 38 172
1.6566 -2.9877 0.9661 1 34 38 172
1.6555 -2.9945 0.9674 1 34 38 172
1.6541 -3.001 0.9692 1 34 38 172
1.6529 -3.0077 0.9702 1 34 38 172
1.6518 -3.0147 0.972 1 34 38 172
1.6502 -3.0208 0.9732 1 34 38 172
1.6493 -3.0282 0.9747 1 34 38 172
1.6477 -3.034 0.9765 1 34 38 172
1.6462 -3.0403 0.9772 1 34 38 172
1.645 -3.0474 0.9794 1 34 38 172
1.6437 -3.0543 0.9808 1 34 38 172
1.6422 -3.0607 0.9821 1 34 38 172
1.6397 -3.0746 0.9851 1 34 38 172
1.6378 -3.0803 0.9866 1 34 38 172
1.6368 -3.0878 0.9881 1 34 38 172
1.6354 -3.0946 0.9895 1 34 38 172
1.6342 -3.1015 0.9912 1 34 38 172
1.6328 -3.1083 0.9926 1 34 38 172
1.6314 -3.1154 0.9945 1 34 38 172
1.6302 -3.1224 0.9959 1 34 38 172
1.6289 -3.1297 0.9975 1 34 38 172
1.6273 -3.1361 0.9988 1 34 38 172
1.6261 -3.1433 1.0003 1 34 38 172
1.6247 -3.1507 1.0021 1 34 38 172
1.6232 -3.1571 1.0033 1 34 38 172
1.6211 -3.1629 1.0049 1 34 38 172
1.6202 -3.1711 1.0065 1 34 38 172
1.619 -3.1787 1.0085 1 34 38 172
1.6173 -3.1851 1.0098 1 34 38 172
1.6161 -3.1925 1.0113 1 34 38 172
1.6148 -3.1999 1.0131 1 34 38 172
1.613 -3.2066 1.0145 1 34 38 172
1.6117 -3.2141 1.0164 1 34 38 172
1.6103 -3.2211 1.0178 1 34 38 172
1.6087 -3.2281 1.0194 1 34 38 172
1.6072 -3.2354 1.0212 1 34 38 172
1.6059 -3.243 1.0225 1 34 38 172
1.6048 -3.2512 1.0252 1 34 38 172
1.603 -3.2579 1.0261 1 34 38 172
1.6017 -3.2655 1.0281 1 34 38 172
1.6 -3.2724 1.0296 1 34 38 172
1.5984 -3.2796 1.0311 1 34 38 172
1.5971 -3.2875 1.0332 1 34 38 172
1.5959 -3.2952 1.0345 1 34 38 172
1.5928 -3.3101 1.0383 1 34 38 172
1.5914 -3.318 1.0401 1 34 38 172
1.5901 -3.3257 1.0417 1 34 38 172
1.5878 -3.3317 1.043 1 34 38 172
1.5867 -3.3405 1.0454 1 34 38 172
1.5851 -3.3478 1.0465 1 34 38 172
1.5839 -3.356 1.0488 1 34 38 172
1.5823 -3.3636 1.0506 1 34 38 172
1.5808 -3.3718 1.0522 1 34 38 172
1.5788 -3.3786 1.0539 1 34 38 172
1.5776 -3.3869 1.0556 1 34 38 172
1.5758 -3.3943 1.0574 1 34 38 172
1.5745 -3.4028 1.0596 1 34 38 172
1.5726 -3.4098 1.0609 1 34 38 172
1.5714 -3.4184 1.0632 1 34 38 172
1.5698 -3.4263 1.0648 1 34 38 172
1.5677 -3.4331 1.0668 1 34 38 172
1.566 -3.4408 1.0679 1 34 38 172
1.5645 -3.4491 1.0715 1 34 38 172
1.5632 -3.4574 1.072 1 34 38 172
1.5616 -3.4656 1.0738 1 34 38 172
1.5599 -3.4735 1.076 1 34 38 172
1.5577 -3.4802 1.0774 1 34 38 172
1.5571 -3.4906 1.0797 1 34 38 172
1.5555 -3.4988 1.0819 1 34 38 172
1.5536 -3.5067 1.0847 1 34 38 172
1.5519 -3.5148 1.0857 1 34 38 172
1.5498 -3.522 1.087 1 34 38 172
1.5484 -3.5308 1.0906 1 34 38 172
1.5466 -3.5388 1.0913 1 34 38 172
1.5454 -3.5483 1.0932 1 34 38 172
1.5435 -3.556 1.0955 1 34 38 172
1.542 -3.5649 1.0984 1 34 38 172
1.6872 -2.8376 0.9281 1 34 38 172
1.6855 -2.8427 0.9289 1 34 38 172
1.6845 -2.8491 0.9318 1 34 38 172
1.6833 -2.8554 0.9317 1 34 38 172
1.6823 -2.8617 0.9343 1 34 38 172
1.6805 -2.8669 0.9343 1 34 38 172
1.6794 -2.8734 0.9366 1 34 38 172
1.6778 -2.8789 0.9371 1 34 38 172
1.6768 -2.8858 0.9391 1 34 38 172
1.6755 -2.8916 0.9398 1 34 38 172
1.6741 -2.8976 0.9406 1 34 38 172
1.6733 -2.9048 0.9437 1 34 38 172
1.6716 -2.9102 0.9435 1 34 38 172
1.6707 -2.917 0.9457 1 34 38 172
1.6691 -2.9228 0.9464 1 34 38 172
1.6683 -2.93 0.9477 1 34 38 172
1.6668 -2.9361 0.9501 1 34 38 172
1.6654 -2.9421 0.9502 1 34 38 172
1.6642 -2.9486 0.9528 1 34 38 172
1.6632 -2.9555 0.9538 1 34 38 172
1.6616 -2.9615 0.9557 1 34 38 172
1.6605 -2.968 0.957 1 34 38 172
1.6592 -2.9746 0.9575 1 34 38 172
1.6585 -2.9823 0.9601 1 34 38 172
1.6568 -2.988 0.9615 1 34 38 172
1.6558 -2.9952 0.9629 1 34 38 172
1.6542 -3.001 0.9645 1 34 38 172
1.653 -3.0079 0.9656 1 34 38 172
1.6517 -3.0144 0.9673 1 34 38 172
1.6503 -3.0209 0.9686 1 34 38 172
1.6486 -3.0269 0.9696 1 34 38 172
1.6479 -3.0345 0.9721 1 34 38 172
1.6467 -3.0414 0.9728 1 34 38 172
1.6451 -3.0475 0.9747 1 34 38 172
1.6436 -3.0541 0.976 1 34 38 172
1.6428 -3.0618 0.9777 1 34 38 172
1.6412 -3.0681 0.9791 1 34 38 172
1.6383 -3.0812 0.9823 1 34 38 172
1.637 -3.0883 0.9835 1 34 38 172
1.6354 -3.0945 0.9848 1 34 38 172
1.6344 -3.102 0.9866 1 34 38 172
1.6326 -3.1079 0.9877 1 34 38 172
1.6314 -3.1154 0.9898 1 34 38 172
1.6303 -3.1226 0.9911 1 34 38 172
1.6285 -3.129 0.9925 1 34 38 172
1.6273 -3.136 0.9941 1 34 38 172
1.6262 -3.1437 0.9957 1 34 38 172
1.6242 -3.1497 0.997 1 34 38 172
1.6236 -3.158 0.9988 1 34 38 172
1.6216 -3.1638 1.0003 1 34 38 172
1.6198 -3.1705 1.0014 1 34 38 172
1.6188 -3.1782 1.0033 1 34 38 172
1.6169 -3.1844 1.0048 1 34 38 172
1.6158 -3.1919 1.0063 1 34 38 172
1.6145 -3.1994 1.0082 1 34 38 172
1.6133 -3.2073 1.0098 1 34 38 172
1.6117 -3.2141 1.0116 1 34 38 172
1.6103 -3.2211 1.0129 1 34 38 172
1.6087 -3.2281 1.0145 1 34 38 172
1.6072 -3.2356 1.0163 1 34 38 172
1.6058 -3.243 1.0176 1 34 38 172
1.605 -3.2515 1.0204 1 34 38 172
1.603 -3.2578 1.0213 1 34 38 172
1.6017 -3.2655 1.0231 1 34 38 172
1.6001 -3.2727 1.0247 1 34 38 172
1.5988 -3.2805 1.0265 1 34 38 172
1.5973 -3.2879 1.0284 1 34 38 172
1.5954 -3.2942 1.0294 1 34 38 172
1.5946 -3.303 1.0318 1 34 38 172
1.5927 -3.3099 1.0333 1 34 38 172
1.5913 -3.3179 1.0349 1 34 38 172
1.5886 -3.3334 1.0386 1 34 38 172
1.5869 -3.3409 1.0405 1 34 38 172
1.5856 -3.3487 1.0419 1 34 38 172
1.5837 -3.3556 1.0435 1 34 38 172
1.5823 -3.3636 1.0455 1 34 38 172
1.5809 -3.3719 1.0472 1 34 38 172
1.579 -3.379 1.0491 1 34 38 172
1.5777 -3.3872 1.0506 1 34 38 172
1.576 -3.3947 1.0526 1 34 38 172
1.5739 -3.4013 1.0539 1 34 38 172
1.5726 -3.4098 1.0558 1 34 38 172
1.5707 -3.4169 1.0576 1 34 38 172
1.5696 -3.4259 1.0595 1 34 38 172
1.5679 -3.4336 1.0617 1 34 38 172
1.5664 -3.4418 1.0631 1 34 38 172
1.565 -3.4502 1.0666 1 34 38 172
1.5634 -3.4578 1.0671 1 34 38 172
1.5616 -3.4656 1.0685 1 34 38 172
1.56 -3.4736 1.0709 1 34 38 172
1.5583 -3.4814 1.0726 1 34 38 172
1.5567 -3.4898 1.0744 1 34 38 172
1.5551 -3.498 1.0766 1 34 38 172
1.5534 -3.5063 1.0795 1 34 38 172
1.5514 -3.5136 1.08 1 34 38 172
1.5499 -3.5223 1.0819 1 34 38 172
1.5483 -3.5306 1.0853 1 34 38 172
1.5465 -3.5387 1.0858 1 34 38 172
1.5455 -3.5484 1.088 1 34 38 172
1.543 -3.555 1.0898 1 34 38 172
1.5421 -3.5651 1.0931 1 34 38 172
1.6871 -2.8374 0.9237 1 34 38 172
1.6856 -2.8428 0.9244 1 34 38 172
1.6842 -2.8485 0.9271 1 34 38 172
1.6833 -2.8555 0.9273 1 34 38 172
1.682 -2.8613 0.9296 1 34 38 172
1.6807 -2.8673 0.9298 1 34 38 172
1.6797 -2.8739 0.9322 1 34 38 172
1.6783 -2.8797 0.9329 1 34 38 172
1.6769 -2.8859 0.9347 1 34 38 172
1.6753 -2.8914 0.9351 1 34 38 172
1.6744 -2.8981 0.9361 1 34 38 172
1.673 -2.9044 0.939 1 34 38 172
1.6721 -2.911 0.9391 1 34 38 172
1.6709 -2.9174 0.9414 1 34 38 172
1.6699 -2.9241 0.9422 1 34 38 172
1.6682 -2.9297 0.943 1 34 38 172
1.6667 -2.9359 0.9454 1 34 38 172
1.6655 -2.9423 0.9457 1 34 38 172
1.6642 -2.9486 0.9483 1 34 38 172
1.6632 -2.9554 0.949 1 34 38 172
1.6617 -2.9618 0.9511 1 34 38 172
1.6603 -2.9678 0.9524 1 34 38 172
1.6589 -2.9742 0.9526 1 34 38 172
1.6578 -2.981 0.955 1 34 38 172
1.657 -2.9884 0.9571 1 34 38 172
1.6558 -2.995 0.9583 1 34 38 172
1.6541 -3.001 0.9599 1 34 38 172
1.6528 -3.0075 0.9608 1 34 38 172
1.6518 -3.0147 0.9627 1 34 38 172
1.65 -3.0204 0.9637 1 34 38 172
1.6491 -3.0277 0.9652 1 34 38 172
1.6474 -3.0334 0.967 1 34 38 172
1.6464 -3.0408 0.9679 1 34 38 172
1.6446 -3.0466 0.9697 1 34 38 172
1.6434 -3.0538 0.9712 1 34 38 172
1.6424 -3.061 0.9727 1 34 38 172
1.6408 -3.0675 0.9742 1 34 38 172
1.6395 -3.0742 0.9755 1 34 38 172
1.6382 -3.0811 0.9774 1 34 38 172
1.6366 -3.0874 0.9785 1 34 38 172
1.6352 -3.0942 0.9799 1 34 38 172
1.6347 -3.1025 0.982 1 34 38 172
1.6329 -3.1085 0.9831 1 34 38 172
1.6316 -3.1158 0.9851 1 34 38 172
1.6299 -3.1217 0.9861 1 34 38 172
1.6284 -3.1288 0.9877 1 34 38 172
1.6273 -3.1359 0.9892 1 34 38 172
1.6259 -3.143 0.9906 1 34 38 172
1.6244 -3.15 0.9923 1 34 38 172
1.6228 -3.1563 0.9934 1 34 38 172
1.6216 -3.1639 0.9956 1 34 38 172
1.6205 -3.1717 0.997 1 34 38 172
1.6185 -3.1778 0.9985 1 34 38 172
1.6173 -3.1852 1.0002 1 34 38 172
1.6164 -3.1932 1.0018 1 34 38 172
1.6146 -3.1995 1.0033 1 34 38 172
1.6129 -3.2064 1.0047 1 34 38 172
1.6117 -3.2142 1.0067 1 34 38 172
1.6099 -3.2205 1.0077 1 34 38 172
1.6089 -3.2286 1.0097 1 34 38 172
1.6073 -3.2357 1.0115 1 34 38 172
1.606 -3.2434 1.0129 1 34 38 172
1.6047 -3.251 1.0153 1 34 38 172
1.6029 -3.2576 1.0161 1 34 38 172
1.6011 -3.2644 1.0179 1 34 38 172
1.5998 -3.272 1.0196 1 34 38 172
1.5987 -3.2803 1.0215 1 34 38 172
1.597 -3.2872 1.0232 1 34 38 172
1.5957 -3.2949 1.0245 1 34 38 172
1.5939 -3.3017 1.0263 1 34 38 172
1.5923 -3.3091 1.0281 1 34 38 172
1.591 -3.3172 1.0298 1 34 38 172
1.59 -3.3255 1.0317 1 34 38 172
1.5882 -3.3326 1.0332 1 34 38 172
1.5871 -3.3414 1.0356 1 34 38 172
1.5856 -3.3487 1.0368 1 34 38 172
1.5833 -3.3549 1.0384 1 34 38 172
1.5824 -3.3637 1.0406 1 34 38 172
1.5804 -3.3709 1.0419 1 34 38 172
1.579 -3.3789 1.0439 1 34 38 172
1.5777 -3.3873 1.0456 1 34 38 172
1.5758 -3.3942 1.0473 1 34 38 172
1.5742 -3.4021 1.0492 1 34 38 172
1.5722 -3.4089 1.0506 1 34 38 172
1.5709 -3.4174 1.0528 1 34 38 172
1.5694 -3.4255 1.0543 1 34 38 172
1.568 -3.4338 1.0568 1 34 38 172
1.5665 -3.4421 1.0581 1 34 38 172
1.5646 -3.4493 1.0612 1 34 38 172
1.5629 -3.4569 1.0617 1 34 38 172
1.5614 -3.4649 1.0633 1 34 38 172
1.5604 -3.4746 1.0662 1 34 38 172
1.5583 -3.4814 1.0674 1 34 38 172
1.5566 -3.4895 1.069 1 34 38 172
1.5552 -3.498 1.0713 1 34 38 172
1.5534 -3.5063 1.0741 1 34 38 172
1.5518 -3.5147 1.0752 1 34 38 172
1.5501 -3.5227 1.0769 1 34 38 172
1.5485 -3.531 1.0802 1 34 38 172
1.5469 -3.5396 1.081 1 34 38 172
1.5456 -3.5486 1.0828 1 34 38 172
1.543 -3.5549 1.0847 1 34 38 172
1.5418 -3.5643 1.0877 1 34 38 172
1.6874 -2.8379 0.9193 1 34 38 172
1.6856 -2.8428 0.92 1 34 38 172
1.6841 -2.8485 0.9226 1 34 38 172
1.6832 -2.8553 0.9228 1 34 38 172
1.6814 -2.8602 0.9249 1 34 38 172
1.6808 -2.8674 0.9254 1 34 38 172
1.6795 -2.8735 0.9276 1 34 38 172
1.6779 -2.879 0.9281 1 34 38 172
1.6766 -2.8853 0.9299 1 34 38 172
1.676 -2.8925 0.931 1 34 38 172
1.6743 -2.8981 0.9317 1 34 38 172
1.673 -2.9043 0.9345 1 34 38 172
1.6718 -2.9105 0.9346 1 34 38 172
1.6706 -2.9169 0.9366 1 34 38 172
1.6695 -2.9236 0.9375 1 34 38 172
1.668 -2.9294 0.9385 1 34 38 172
1.6668 -2.9362 0.941 1 34 38 172
1.6652 -2.9418 0.9411 1 34 38 172
1.6642 -2.9485 0.9436 1 34 38 172
1.6633 -2.9556 0.9446 1 34 38 172
1.6616 -2.9615 0.9464 1 34 38 172
1.6601 -2.9674 0.9476 1 34 38 172
1.6589 -2.9742 0.9481 1 34 38 172
1.6578 -2.9811 0.9504 1 34 38 172
1.6571 -2.9885 0.9524 1 34 38 172
1.6555 -2.9946 0.9534 1 34 38 172
1.6531 -3.0081 0.9564 1 34 38 172
1.6517 -3.0144 0.958 1 34 38 172
1.6503 -3.0208 0.9592 1 34 38 172
1.6492 -3.0279 0.9606 1 34 38 172
1.6478 -3.0342 0.9626 1 34 38 172
1.646 -3.0401 0.963 1 34 38 172
1.6449 -3.0471 0.9652 1 34 38 172
1.6437 -3.0544 0.9667 1 34 38 172
1.6424 -3.0612 0.9681 1 34 38 172
1.6398 -3.0747 0.9709 1 34 38 172
1.6387 -3.082 0.9731 1 34 38 172
1.6372 -3.0885 0.9741 1 34 38 172
1.6356 -3.0949 0.9755 1 34 38 172
1.634 -3.1011 0.9768 1 34 38 172
1.6329 -3.1084 0.9783 1 34 38 172
1.6312 -3.115 0.9801 1 34 38 172
1.6302 -3.1224 0.9816 1 34 38 172
1.6287 -3.1293 0.983 1 34 38 172
1.6271 -3.1355 0.9844 1 34 38 172
1.6255 -3.1423 0.9856 1 34 38 172
1.6247 -3.1507 0.9878 1 34 38 172
1.623 -3.1567 0.9888 1 34 38 172
1.6217 -3.164 0.9908 1 34 38 172
1.6207 -3.1721 0.9923 1 34 38 172
1.6183 -3.1774 0.9934 1 34 38 172
1.6174 -3.1855 0.9954 1 34 38 172
1.6158 -3.192 0.9966 1 34 38 172
1.6145 -3.1994 0.9985 1 34 38 172
1.6131 -3.2068 0.9999 1 34 38 172
1.6118 -3.2143 1.0019 1 34 38 172
1.6103 -3.2211 1.0032 1 34 38 172
1.6088 -3.2283 1.0048 1 34 38 172
1.6071 -3.2354 1.0065 1 34 38 172
1.6059 -3.2431 1.0079 1 34 38 172
1.6044 -3.2504 1.0102 1 34 38 172
1.6032 -3.2582 1.0115 1 34 38 172
1.6018 -3.2657 1.0134 1 34 38 172
1.6002 -3.273 1.0149 1 34 38 172
1.5986 -3.28 1.0164 1 34 38 172
1.5972 -3.2876 1.0184 1 34 38 172
1.5962 -3.2958 1.02 1 34 38 172
1.594 -3.3018 1.0215 1 34 38 172
1.5928 -3.3101 1.0234 1 34 38 172
1.5912 -3.3177 1.025 1 34 38 172
1.5895 -3.3245 1.0265 1 34 38 172
1.5886 -3.3334 1.0286 1 34 38 172
1.5868 -3.3408 1.0304 1 34 38 172
1.5854 -3.3484 1.0318 1 34 38 172
1.5837 -3.3557 1.0335 1 34 38 172
1.5819 -3.3627 1.0352 1 34 38 172
1.5804 -3.3709 1.0368 1 34 38 172
1.5788 -3.3785 1.0388 1 34 38 172
1.5774 -3.3866 1.0403 1 34 38 172
1.5758 -3.3943 1.0423 1 34 38 172
1.5745 -3.4026 1.0442 1 34 38 172
1.5726 -3.4098 1.0456 1 34 38 172
1.5711 -3.4179 1.0478 1 34 38 172
1.5694 -3.4255 1.0492 1 34 38 172
1.5684 -3.4346 1.0519 1 34 38 172
1.5663 -3.4414 1.0528 1 34 38 172
1.5649 -3.45 1.0563 1 34 38 172
1.5634 -3.4578 1.0568 1 34 38 172
1.562 -3.4663 1.0586 1 34 38 172
1.5598 -3.4731 1.0604 1 34 38 172
1.5583 -3.4814 1.0623 1 34 38 172
1.5568 -3.4899 1.0641 1 34 38 172
1.5551 -3.498 1.0662 1 34 38 172
1.5533 -3.506 1.069 1 34 38 172
1.5517 -3.5142 1.0699 1 34 38 172
1.5501 -3.5226 1.0715 1 34 38 172
1.549 -3.5321 1.0753 1 34 38 172
1.5467 -3.539 1.0755 1 34 38 172
1.5449 -3.5472 1.0773 1 34 38 172
1.5431 -3.5551 1.0795 1 34 38 172
1.5419 -3.5645 1.0824 1 34 38 172
1.6869 -2.837 0.9146 1 34 38 172
1.6857 -2.843 0.9156 1 34 38 172
1.6844 -2.8489 0.9182 1 34 38 172
1.683 -2.8549 0.9181 1 34 38 172
1.682 -2.8612 0.9206 1 34 38 172
1.6802 -2.8665 0.9205 1 34 38 172
1.6795 -2.8735 0.9231 1 34 38 172
1.678 -2.8793 0.9237 1 34 38 172
1.6772 -2.8865 0.9259 1 34 38 172
1.6758 -2.8922 0.9264 1 34 38 172
1.6746 -2.8985 0.9272 1 34 38 172
1.673 -2.9044 0.9299 1 34 38 172
1.6713 -2.9096 0.9297 1 34 38 172
1.6703 -2.9163 0.9319 1 34 38 172
1.6692 -2.9229 0.9327 1 34 38 172
1.6684 -2.93 0.934 1 34 38 172
1.6667 -2.9359 0.9362 1 34 38 172
1.6651 -2.9417 0.9364 1 34 38 172
1.6641 -2.9484 0.9391 1 34 38 172
1.6625 -2.9542 0.9395 1 34 38 172
1.6618 -2.9619 0.9419 1 34 38 172
1.6605 -2.968 0.9433 1 34 38 172
1.6592 -2.9747 0.9435 1 34 38 172
1.6576 -2.9807 0.9457 1 34 38 172
1.6566 -2.9878 0.9476 1 34 38 172
1.6556 -2.9948 0.949 1 34 38 172
1.6539 -3.0006 0.9505 1 34 38 172
1.6529 -3.0076 0.9516 1 34 38 172
1.6517 -3.0145 0.9533 1 34 38 172
1.6502 -3.0207 0.9545 1 34 38 172
1.6487 -3.027 0.9556 1 34 38 172
1.6476 -3.0338 0.9577 1 34 38 172
1.6465 -3.0409 0.9586 1 34 38 172
1.6449 -3.0471 0.9605 1 34 38 172
1.6435 -3.054 0.9619 1 34 38 172
1.6425 -3.0612 0.9634 1 34 38 172
1.6411 -3.068 0.965 1 34 38 172
1.6398 -3.0748 0.9662 1 34 38 172
1.6382 -3.0812 0.968 1 34 38 172
1.6367 -3.0876 0.9692 1 34 38 172
1.6354 -3.0945 0.9705 1 34 38 172
1.6348 -3.1027 0.9725 1 34 38 172
1.633 -3.1087 0.9737 1 34 38 172
1.631 -3.1147 0.9752 1 34 38 172
1.6301 -3.1221 0.9767 1 34 38 172
1.6284 -3.1287 0.9781 1 34 38 172
1.6272 -3.1359 0.9796 1 34 38 172
1.6257 -3.1426 0.9809 1 34 38 172
1.6245 -3.1502 0.9828 1 34 38 172
1.6235 -3.1578 0.9843 1 34 38 172
1.6221 -3.1649 0.9862 1 34 38 172
1.6197 -3.1703 0.9869 1 34 38 172
1.6186 -3.1779 0.9889 1 34 38 172
1.6179 -3.1864 0.9909 1 34 38 172
1.6159 -3.1922 0.9918 1 34 38 172
1.615 -3.2004 0.9939 1 34 38 172
1.6131 -3.2069 0.9951 1 34 38 172
1.6117 -3.2142 0.997 1 34 38 172
1.6099 -3.2204 0.9981 1 34 38 172
1.6088 -3.2283 0.9999 1 34 38 172
1.6074 -3.2359 1.0017 1 34 38 172
1.6055 -3.2422 1.0027 1 34 38 172
1.6039 -3.2493 1.005 1 34 38 172
1.6032 -3.2583 1.0065 1 34 38 172
1.6016 -3.2654 1.0084 1 34 38 172
1.6002 -3.2729 1.01 1 34 38 172
1.5987 -3.2803 1.0116 1 34 38 172
1.5974 -3.288 1.0136 1 34 38 172
1.5954 -3.2943 1.0146 1 34 38 172
1.5944 -3.3027 1.0167 1 34 38 172
1.5927 -3.3098 1.0183 1 34 38 172
1.5913 -3.3179 1.0201 1 34 38 172
1.5898 -3.3251 1.0216 1 34 38 172
1.5884 -3.333 1.0234 1 34 38 172
1.5869 -3.341 1.0254 1 34 38 172
1.5855 -3.3485 1.0267 1 34 38 172
1.5839 -3.356 1.0287 1 34 38 172
1.5819 -3.3627 1.0302 1 34 38 172
1.5806 -3.3713 1.0319 1 34 38 172
1.5789 -3.3787 1.0337 1 34 38 172
1.5776 -3.387 1.0354 1 34 38 172
1.5757 -3.3941 1.0372 1 34 38 172
1.5745 -3.4026 1.0392 1 34 38 172
1.573 -3.4103 1.0408 1 34 38 172
1.5711 -3.4179 1.0428 1 34 38 172
1.5695 -3.4257 1.0442 1 34 38 172
1.5681 -3.4339 1.0466 1 34 38 172
1.5662 -3.4412 1.0476 1 34 38 172
1.5649 -3.4499 1.0512 1 34 38 172
1.563 -3.457 1.0515 1 34 38 172
1.5619 -3.4662 1.0534 1 34 38 172
1.5598 -3.4731 1.0554 1 34 38 172
1.5583 -3.4815 1.0573 1 34 38 172
1.5569 -3.4902 1.0589 1 34 38 172
1.5553 -3.4984 1.061 1 34 38 172
1.5537 -3.5069 1.0639 1 34 38 172
1.5518 -3.5146 1.0648 1 34 38 172
1.5497 -3.5218 1.0662 1 34 38 172
1.5485 -3.5311 1.0697 1 34 38 172
1.5471 -3.5399 1.0707 1 34 38 172
1.5451 -3.5476 1.0722 1 34 38 172
1.5433 -3.5556 1.0744 1 34 38 172
1.542 -3.5648 1.0773 1 34 38 172
1.6872 -2.8375 0.9103 1 34 38 172
1.6854 -2.8425 0.9109 1 34 38 172
1.6842 -2.8486 0.9137 1 34 38 172
1.6828 -2.8547 0.9136 1 34 38 172
1.6819 -2.861 0.9162 1 34 38 172
1.6809 -2.8677 0.9165 1 34 38 172
1.6798 -2.874 0.9187 1 34 38 172
1.6783 -2.8798 0.9194 1 34 38 172
1.677 -2.886 0.9211 1 34 38 172
1.676 -2.8924 0.9219 1 34 38 172
1.6743 -2.8979 0.9226 1 34 38 172
1.6735 -2.9053 0.9257 1 34 38 172
1.6722 -2.9111 0.9257 1 34 38 172
1.6703 -2.9164 0.9274 1 34 38 172
1.6698 -2.9241 0.9286 1 34 38 172
1.6679 -2.9292 0.9293 1 34 38 172
1.6665 -2.9355 0.9316 1 34 38 172
1.6651 -2.9417 0.9319 1 34 38 172
1.6646 -2.9493 0.9348 1 34 38 172
1.6632 -2.9555 0.9354 1 34 38 172
1.6619 -2.9621 0.9375 1 34 38 172
1.6604 -2.9679 0.9386 1 34 38 172
1.6593 -2.9749 0.9391 1 34 38 172
1.6579 -2.9811 0.9412 1 34 38 172
1.6562 -2.987 0.9428 1 34 38 172
1.6551 -2.9939 0.9439 1 34 38 172
1.6538 -3.0004 0.9458 1 34 38 172
1.6529 -3.0077 0.947 1 34 38 172
1.6522 -3.0153 0.949 1 34 38 172
1.6502 -3.0208 0.9499 1 34 38 172
1.6488 -3.0273 0.9511 1 34 38 172
1.6482 -3.035 0.9535 1 34 38 172
1.6467 -3.0413 0.9541 1 34 38 172
1.6452 -3.0476 0.9561 1 34 38 172
1.6438 -3.0545 0.9573 1 34 38 172
1.6423 -3.0609 0.9586 1 34 38 172
1.6409 -3.0675 0.9601 1 34 38 172
1.6395 -3.0743 0.9615 1 34 38 172
1.6385 -3.0816 0.9635 1 34 38 172
1.6369 -3.0881 0.9645 1 34 38 172
1.6359 -3.0956 0.9662 1 34 38 172
1.6338 -3.1008 0.9672 1 34 38 172
1.6327 -3.108 0.9687 1 34 38 172
1.6311 -3.1148 0.9705 1 34 38 172
1.6301 -3.1222 0.972 1 34 38 172
1.6289 -3.1297 0.9736 1 34 38 172
1.6277 -3.1368 0.9752 1 34 38 172
1.6255 -3.1422 0.976 1 34 38 172
1.6244 -3.15 0.9779 1 34 38 172
1.623 -3.1569 0.9792 1 34 38 172
1.6217 -3.164 0.9811 1 34 38 172
1.62 -3.1706 0.9822 1 34 38 172
1.6187 -3.1781 0.984 1 34 38 172
1.6169 -3.1844 0.9854 1 34 38 172
1.616 -3.1923 0.987 1 34 38 172
1.6146 -3.1995 0.9889 1 34 38 172
1.613 -3.2066 0.9902 1 34 38 172
1.6118 -3.2144 0.9922 1 34 38 172
1.6099 -3.2204 0.9932 1 34 38 172
1.6089 -3.2284 0.9951 1 34 38 172
1.6072 -3.2355 0.9967 1 34 38 172
1.6058 -3.2429 0.998 1 34 38 172
1.6042 -3.25 1.0003 1 34 38 172
1.603 -3.2578 1.0016 1 34 38 172
1.6016 -3.2654 1.0034 1 34 38 172
1.5999 -3.2722 1.0048 1 34 38 172
1.5989 -3.2807 1.0068 1 34 38 172
1.5971 -3.2875 1.0085 1 34 38 172
1.5957 -3.2949 1.0098 1 34 38 172
1.5941 -3.302 1.0116 1 34 38 172
1.5926 -3.3097 1.0133 1 34 38 172
1.5914 -3.318 1.0151 1 34 38 172
1.5902 -3.326 1.017 1 34 38 172
1.5879 -3.332 1.0182 1 34 38 172
1.5868 -3.3407 1.0204 1 34 38 172
1.5856 -3.3488 1.0219 1 34 38 172
1.5836 -3.3555 1.0234 1 34 38 172
1.5816 -3.3622 1.025 1 34 38 172
1.5804 -3.371 1.0268 1 34 38 172
1.5789 -3.3786 1.0288 1 34 38 172
1.5775 -3.3867 1.0303 1 34 38 172
1.5757 -3.3941 1.0321 1 34 38 172
1.5742 -3.402 1.0338 1 34 38 172
1.5728 -3.41 1.0355 1 34 38 172
1.5714 -3.4185 1.0377 1 34 38 172
1.5694 -3.4256 1.0391 1 34 38 172
1.5677 -3.4332 1.0411 1 34 38 172
1.5665 -3.4418 1.0426 1 34 38 172
1.5647 -3.4495 1.0459 1 34 38 172
1.5634 -3.4579 1.0466 1 34 38 172
1.5616 -3.4656 1.0481 1 34 38 172
1.56 -3.4735 1.0503 1 34 38 172
1.5586 -3.4823 1.0522 1 34 38 172
1.5565 -3.4894 1.0536 1 34 38 172
1.555 -3.4977 1.0558 1 34 38 172
1.5531 -3.5057 1.0585 1 34 38 172
1.5518 -3.5146 1.0596 1 34 38 172
1.5501 -3.5226 1.0611 1 34 38 172
1.5485 -3.5311 1.0646 1 34 38 172
1.5465 -3.5387 1.0649 1 34 38 172
1.5449 -3.547 1.0667 1 34 38 172
1.5435 -3.556 1.0692 1 34 38 172
1.5419 -3.5646 1.072 1 34 38 172
1.6867 -2.8368 0.9056 1 34 38 172
1.6859 -2.8433 0.9067 1 34 38 172
1.6841 -2.8484 0.9091 1 34 38 172
1.6828 -2.8547 0.9091 1 34 38 172
1.6817 -2.8607 0.9115 1 34 38 172
1.6805 -2.8669 0.9117 1 34 38 172
1.6797 -2.8738 0.9142 1 34 38 172
1.678 -2.8793 0.9147 1 34 38 172
1.6766 -2.8855 0.9165 1 34 38 172
1.6764 -2.8931 0.9175 1 34 38 172
1.6747 -2.8987 0.9183 1 34 38 172
