1.9083 -2.8781 0.9571 1 209 2 242
1.9024 -2.8772 0.9558 1 209 2 242
1.8966 -2.8761 0.9548 1 209 2 242
1.8904 -2.8746 0.9536 1 209 2 242
1.8846 -2.8737 0.9523 1 209 2 242
1.8788 -2.8727 0.9517 1 209 2 242
1.8727 -2.8712 0.9499 1 209 2 242
1.8671 -2.8706 0.9492 1 209 2 242
1.8609 -2.8689 0.9476 1 209 2 242
1.8552 -2.868 0.9465 1 209 2 242
1.844 -2.8665 0.9444 1 209 2 242
1.8376 -2.8643 0.9434 1 209 2 242
1.8315 -2.8628 0.942 1 209 2 242
1.8207 -2.8617 0.94 1 209 2 242
1.8084 -2.8582 0.9386 1 209 2 242
1.8029 -2.8575 0.9363 1 209 2 242
1.7974 -2.8569 0.9354 1 209 2 242
1.7913 -2.8551 0.9342 1 209 2 242
1.7854 -2.8535 0.9325 1 209 2 242
1.7802 -2.8533 0.9322 1 209 2 242
1.7747 -2.8525 0.9306 1 209 2 242
1.7689 -2.8512 0.9301 1 209 2 242
1.7632 -2.8498 0.9286 1 209 2 242
1.7575 -2.8486 0.9286 1 209 2 242
1.752 -2.8477 0.9267 1 209 2 242
1.7462 -2.8462 0.9251 1 209 2 242
1.7402 -2.8445 0.9243 1 209 2 242
1.7346 -2.8436 0.923 1 209 2 242
1.7292 -2.8428 0.9219 1 209 2 242
1.7236 -2.8416 0.921 1 209 2 242
1.7185 -2.8413 0.921 1 209 2 242
1.7127 -2.8395 0.9191 1 209 2 242
1.7073 -2.8386 0.9177 1 209 2 242
1.7018 -2.8375 0.9169 1 209 2 242
1.6959 -2.8357 0.9155 1 209 2 242
1.6907 -2.8351 0.9145 1 209 2 242
2.2277 -2.9409 1.018 1 209 2 242
2.2209 -2.9393 1.0165 1 209 2 242
2.2143 -2.9382 1.0148 1 209 2 242
2.2078 -2.9373 1.0138 1 209 2 242
2.201 -2.9359 1.0121 1 209 2 242
2.1943 -2.9347 1.011 1 209 2 242
2.1869 -2.9325 1.0089 1 209 2 242
2.1807 -2.932 1.0081 1 209 2 242
2.1738 -2.9302 1.0067 1 209 2 242
2.168 -2.9301 1.0054 1 209 2 242
2.1609 -2.9282 1.0043 1 209 2 242
2.155 -2.9278 1.0028 1 209 2 242
2.1478 -2.9261 1.0015 1 209 2 242
2.1409 -2.9243 0.9998 1 209 2 242
2.134 -2.9226 0.9983 1 209 2 242
2.1278 -2.9216 0.9971 1 209 2 242
2.1215 -2.9206 0.9958 1 209 2 242
2.1152 -2.9197 0.9948 1 209 2 242
2.1084 -2.918 0.993 1 209 2 242
2.1019 -2.9167 0.9918 1 209 2 242
2.0957 -2.9159 0.9906 1 209 2 242
2.0891 -2.9143 0.989 1 209 2 242
2.0823 -2.9127 0.9876 1 209 2 242
2.0763 -2.912 0.9863 1 209 2 242
2.0695 -2.9102 0.9853 1 209 2 242
2.0631 -2.9089 0.9835 1 209 2 242
2.057 -2.908 0.9826 1 209 2 242
2.0508 -2.907 0.9814 1 209 2 242
2.0442 -2.9054 0.9798 1 209 2 242
2.0381 -2.9046 0.9791 1 209 2 242
2.0319 -2.9035 0.9773 1 209 2 242
2.0253 -2.9019 0.9761 1 209 2 242
2.0193 -2.9009 0.9749 1 209 2 242
2.0128 -2.8995 0.9736 1 209 2 242
2.0067 -2.8983 0.9723 1 209 2 242
2.0003 -2.8968 0.9708 1 209 2 242
1.9937 -2.895 0.9699 1 209 2 242
1.988 -2.8947 0.9685 1 209 2 242
1.9814 -2.893 0.9669 1 209 2 242
1.9754 -2.8918 0.9661 1 209 2 242
1.9687 -2.8898 0.9644 1 209 2 242
1.9627 -2.8887 0.9634 1 209 2 242
1.9569 -2.8882 0.9623 1 209 2 242
1.9505 -2.8864 0.9609 1 209 2 242
1.945 -2.8861 0.9598 1 209 2 242
1.9383 -2.8839 0.9584 1 209 2 242
1.9264 -2.8818 0.9559 1 209 2 242
1.92 -2.8803 0.9548 1 209 2 242
1.9142 -2.8794 0.9535 1 209 2 242
1.9086 -2.8786 0.9525 1 209 2 242
1.9025 -2.8774 0.9513 1 209 2 242
1.8965 -2.876 0.9501 1 209 2 242
1.8901 -2.8741 0.9488 1 209 2 242
1.8845 -2.8735 0.9476 1 209 2 242
1.8791 -2.8732 0.9472 1 209 2 242
1.873 -2.8718 0.9455 1 209 2 242
1.8669 -2.8703 0.9444 1 209 2 242
1.8609 -2.8689 0.943 1 209 2 242
1.8553 -2.8681 0.942 1 209 2 242
1.849 -2.8664 0.9411 1 209 2 242
1.8436 -2.8658 0.9396 1 209 2 242
1.838 -2.865 0.9389 1 209 2 242
1.8319 -2.8634 0.9376 1 209 2 242
1.8258 -2.8619 0.9359 1 209 2 242
1.8207 -2.8618 0.9353 1 209 2 242
1.8147 -2.8603 0.9341 1 209 2 242
1.8086 -2.8585 0.9341 1 209 2 242
1.8031 -2.8578 0.9318 1 209 2 242
1.7975 -2.8571 0.9311 1 209 2 242
1.7913 -2.8552 0.9296 1 209 2 242
1.7858 -2.8542 0.9282 1 209 2 242
1.7799 -2.8528 0.9275 1 209 2 242
1.7739 -2.8513 0.9258 1 209 2 242
1.7689 -2.8513 0.9256 1 209 2 242
1.7627 -2.8491 0.9239 1 209 2 242
1.7578 -2.8491 0.9243 1 209 2 242
1.7518 -2.8474 0.922 1 209 2 242
1.7462 -2.8462 0.9206 1 209 2 242
1.7407 -2.8454 0.9199 1 209 2 242
1.7348 -2.844 0.9186 1 209 2 242
1.7293 -2.843 0.9175 1 209 2 242
1.7238 -2.8419 0.9166 1 209 2 242
1.7182 -2.8407 0.9163 1 209 2 242
1.713 -2.8399 0.9147 1 209 2 242
1.7069 -2.838 0.9131 1 209 2 242
1.7022 -2.8381 0.9126 1 209 2 242
1.6966 -2.8369 0.9113 1 209 2 242
1.6911 -2.8359 0.9102 1 209 2 242
2.2274 -2.9404 1.0129 1 209 2 242
2.221 -2.9395 1.0116 1 209 2 242
2.2148 -2.9389 1.0101 1 209 2 242
2.2077 -2.9371 1.0087 1 209 2 242
2.2007 -2.9356 1.007 1 209 2 242
2.1876 -2.9333 1.0044 1 209 2 242
2.1803 -2.9315 1.003 1 209 2 242
2.1742 -2.9308 1.002 1 209 2 242
2.1673 -2.9291 1.0001 1 209 2 242
2.16 -2.927 0.9989 1 209 2 242
2.1538 -2.9263 0.9974 1 209 2 242
2.1474 -2.9254 0.9964 1 209 2 242
2.1412 -2.9247 0.9951 1 209 2 242
2.1344 -2.9231 0.9936 1 209 2 242
2.1278 -2.9216 0.992 1 209 2 242
2.1213 -2.9204 0.9907 1 209 2 242
2.1149 -2.9193 0.9898 1 209 2 242
2.108 -2.9175 0.9879 1 209 2 242
2.1021 -2.917 0.987 1 209 2 242
2.0954 -2.9154 0.9856 1 209 2 242
2.0887 -2.9138 0.9839 1 209 2 242
2.0821 -2.9123 0.9826 1 209 2 242
2.0764 -2.9121 0.9817 1 209 2 242
2.0695 -2.9102 0.9806 1 209 2 242
2.063 -2.9088 0.9786 1 209 2 242
2.0566 -2.9074 0.9776 1 209 2 242
2.0509 -2.9071 0.9766 1 209 2 242
2.0443 -2.9055 0.975 1 209 2 242
2.0378 -2.9042 0.9741 1 209 2 242
2.0315 -2.903 0.9724 1 209 2 242
2.0253 -2.9019 0.9714 1 209 2 242
2.019 -2.9005 0.9699 1 209 2 242
2.0126 -2.8992 0.9687 1 209 2 242
2.006 -2.8973 0.9672 1 209 2 242
2.0003 -2.8969 0.966 1 209 2 242
1.9939 -2.8953 0.9651 1 209 2 242
1.9879 -2.8947 0.9636 1 209 2 242
1.981 -2.8923 0.9621 1 209 2 242
1.9759 -2.8925 0.9616 1 209 2 242
1.9693 -2.8906 0.9598 1 209 2 242
1.9628 -2.8889 0.9586 1 209 2 242
1.9571 -2.8885 0.9578 1 209 2 242
1.9508 -2.8868 0.9563 1 209 2 242
1.9443 -2.8849 0.9546 1 209 2 242
1.9388 -2.8847 0.954 1 209 2 242
1.9318 -2.882 0.9523 1 209 2 242
1.9268 -2.8823 0.9515 1 209 2 242
1.9203 -2.8805 0.9502 1 209 2 242
1.9145 -2.8798 0.9489 1 209 2 242
1.9087 -2.8788 0.9479 1 209 2 242
1.9024 -2.8773 0.9466 1 209 2 242
1.8968 -2.8765 0.9456 1 209 2 242
1.8907 -2.8751 0.9445 1 209 2 242
1.8839 -2.8726 0.9427 1 209 2 242
1.8787 -2.8725 0.9423 1 209 2 242
1.8728 -2.8715 0.9407 1 209 2 242
1.8676 -2.8712 0.9401 1 209 2 242
1.8614 -2.8696 0.9386 1 209 2 242
1.8547 -2.8672 0.937 1 209 2 242
1.8494 -2.867 0.9365 1 209 2 242
1.8431 -2.8651 0.9347 1 209 2 242
1.838 -2.865 0.9344 1 209 2 242
1.8321 -2.8638 0.933 1 209 2 242
1.8257 -2.8616 0.9312 1 209 2 242
1.8199 -2.8605 0.9304 1 209 2 242
1.8145 -2.86 0.9294 1 209 2 242
1.8085 -2.8583 0.9295 1 209 2 242
1.8033 -2.8581 0.9273 1 209 2 242
1.7967 -2.8558 0.926 1 209 2 242
1.7917 -2.8558 0.9253 1 209 2 242
1.7861 -2.8547 0.9238 1 209 2 242
1.78 -2.8531 0.9229 1 209 2 242
1.7743 -2.8519 0.9213 1 209 2 242
1.7686 -2.8507 0.9209 1 209 2 242
1.7632 -2.8499 0.9197 1 209 2 242
1.7574 -2.8485 0.9196 1 209 2 242
1.7521 -2.8479 0.9176 1 209 2 242
1.746 -2.846 0.916 1 209 2 242
1.7406 -2.8452 0.9155 1 209 2 242
1.7347 -2.8438 0.914 1 209 2 242
1.7297 -2.8435 0.9132 1 209 2 242
1.7237 -2.8417 0.912 1 209 2 242
1.7181 -2.8406 0.9118 1 209 2 242
1.7126 -2.8394 0.9101 1 209 2 242
1.707 -2.8381 0.9086 1 209 2 242
1.7017 -2.8374 0.9079 1 209 2 242
1.696 -2.8359 0.9066 1 209 2 242
1.6912 -2.8359 0.9058 1 209 2 242
2.2211 -2.9396 1.0066 1 209 2 242
2.2146 -2.9386 1.005 1 209 2 242
2.2074 -2.9367 1.0037 1 209 2 242
2.2005 -2.9352 1.002 1 209 2 242
2.1937 -2.9339 1.0008 1 209 2 242
2.1868 -2.9324 0.999 1 209 2 242
2.1802 -2.9314 0.998 1 209 2 242
2.1737 -2.9301 0.9968 1 209 2 242
2.1674 -2.9293 0.9953 1 209 2 242
2.1615 -2.929 0.9946 1 209 2 242
2.1541 -2.9267 0.9927 1 209 2 242
2.1478 -2.9261 0.9917 1 209 2 242
2.1409 -2.9243 0.99 1 209 2 242
2.1339 -2.9224 0.9884 1 209 2 242
2.1282 -2.9222 0.9875 1 209 2 242
2.1214 -2.9205 0.986 1 209 2 242
2.1147 -2.9189 0.9848 1 209 2 242
2.1082 -2.9178 0.9832 1 209 2 242
2.102 -2.9169 0.9821 1 209 2 242
2.0953 -2.9153 0.9807 1 209 2 242
2.0886 -2.9137 0.9791 1 209 2 242
2.0824 -2.9128 0.9779 1 209 2 242
2.0764 -2.912 0.9767 1 209 2 242
2.0695 -2.9101 0.9757 1 209 2 242
2.0633 -2.9092 0.974 1 209 2 242
2.0573 -2.9084 0.9732 1 209 2 242
2.0505 -2.9066 0.9717 1 209 2 242
2.0443 -2.9055 0.9702 1 209 2 242
2.0376 -2.904 0.9693 1 209 2 242
2.032 -2.9037 0.9677 1 209 2 242
2.0252 -2.9018 0.9665 1 209 2 242
2.0191 -2.9006 0.9651 1 209 2 242
2.012 -2.8984 0.9637 1 209 2 242
2.0068 -2.8985 0.9629 1 209 2 242
2.0003 -2.8968 0.9613 1 209 2 242
1.9938 -2.8952 0.9605 1 209 2 242
1.9875 -2.894 0.9587 1 209 2 242
1.9812 -2.8927 0.9574 1 209 2 242
1.9756 -2.892 0.9567 1 209 2 242
1.9696 -2.891 0.9553 1 209 2 242
1.9636 -2.8901 0.9543 1 209 2 242
1.9568 -2.888 0.9528 1 209 2 242
1.9505 -2.8864 0.9515 1 209 2 242
1.9449 -2.8859 0.9504 1 209 2 242
1.9389 -2.8848 0.9493 1 209 2 242
1.9325 -2.883 0.948 1 209 2 242
1.9261 -2.8813 0.9463 1 209 2 242
1.9202 -2.8803 0.9455 1 209 2 242
1.9145 -2.8798 0.9443 1 209 2 242
1.9084 -2.8783 0.9431 1 209 2 242
1.9024 -2.8774 0.942 1 209 2 242
1.897 -2.8767 0.941 1 209 2 242
1.8904 -2.8746 0.9397 1 209 2 242
1.8844 -2.8734 0.9383 1 209 2 242
1.8727 -2.8713 0.9361 1 209 2 242
1.8666 -2.8698 0.935 1 209 2 242
1.8616 -2.8699 0.9341 1 209 2 242
1.8552 -2.868 0.9327 1 209 2 242
1.8494 -2.8671 0.9321 1 209 2 242
1.8437 -2.8659 0.9304 1 209 2 242
1.838 -2.8651 0.9297 1 209 2 242
1.8319 -2.8635 0.9284 1 209 2 242
1.8262 -2.8624 0.9269 1 209 2 242
1.82 -2.8607 0.9258 1 209 2 242
1.8149 -2.8606 0.9251 1 209 2 242
1.8086 -2.8586 0.925 1 209 2 242
1.8028 -2.8573 0.9225 1 209 2 242
1.797 -2.8563 0.9217 1 209 2 242
1.7913 -2.8552 0.9206 1 209 2 242
1.786 -2.8545 0.9192 1 209 2 242
1.7801 -2.8533 0.9185 1 209 2 242
1.774 -2.8515 0.9168 1 209 2 242
1.7686 -2.8508 0.9164 1 209 2 242
1.7633 -2.85 0.9151 1 209 2 242
1.757 -2.8477 0.9148 1 209 2 242
1.752 -2.8476 0.9131 1 209 2 242
1.7458 -2.8455 0.9113 1 209 2 242
1.7403 -2.8446 0.9107 1 209 2 242
1.7349 -2.8441 0.9097 1 209 2 242
1.7296 -2.8434 0.9087 1 209 2 242
1.7241 -2.8424 0.9078 1 209 2 242
1.7179 -2.8403 0.9072 1 209 2 242
1.7128 -2.8396 0.9057 1 209 2 242
1.7067 -2.8376 0.9041 1 209 2 242
1.7016 -2.8372 0.9034 1 209 2 242
1.6962 -2.8363 0.9022 1 209 2 242
1.6911 -2.8358 0.9012 1 209 2 242
2.2273 -2.9403 1.0028 1 209 2 242
2.2213 -2.9398 1.0018 1 209 2 242
2.2142 -2.9381 0.9999 1 209 2 242
2.2073 -2.9367 0.9987 1 209 2 242
2.2004 -2.9352 0.997 1 209 2 242
2.194 -2.9343 0.9961 1 209 2 242
2.188 -2.934 0.9947 1 209 2 242
2.1806 -2.9318 0.9933 1 209 2 242
2.1743 -2.9309 0.9922 1 209 2 242
2.1679 -2.9299 0.9905 1 209 2 242
2.1614 -2.9289 0.9898 1 209 2 242
2.1544 -2.927 0.9879 1 209 2 242
2.1471 -2.9251 0.9866 1 209 2 242
2.1408 -2.9242 0.9852 1 209 2 242
2.1339 -2.9224 0.9836 1 209 2 242
2.1278 -2.9216 0.9823 1 209 2 242
2.1214 -2.9205 0.9811 1 209 2 242
2.1152 -2.9196 0.9802 1 209 2 242
2.1089 -2.9188 0.9786 1 209 2 242
2.1022 -2.9172 0.9773 1 209 2 242
2.0957 -2.9158 0.976 1 209 2 242
2.0885 -2.9135 0.9741 1 209 2 242
2.0828 -2.9133 0.9733 1 209 2 242
2.0758 -2.9113 0.9717 1 209 2 242
2.0697 -2.9104 0.9711 1 209 2 242
2.063 -2.9087 0.9689 1 209 2 242
2.0566 -2.9074 0.968 1 209 2 242
2.0506 -2.9067 0.9669 1 209 2 242
2.0439 -2.9049 0.9653 1 209 2 242
2.038 -2.9046 0.9647 1 209 2 242
2.0318 -2.9034 0.9628 1 209 2 242
2.0251 -2.9016 0.9618 1 209 2 242
2.0191 -2.9006 0.9605 1 209 2 242
2.0129 -2.8996 0.9593 1 209 2 242
2.0065 -2.898 0.9579 1 209 2 242
2.0007 -2.8974 0.9567 1 209 2 242
1.9941 -2.8956 0.9558 1 209 2 242
1.9877 -2.8943 0.954 1 209 2 242
1.981 -2.8923 0.9526 1 209 2 242
1.9755 -2.8919 0.9519 1 209 2 242
1.9692 -2.8904 0.9503 1 209 2 242
1.9632 -2.8895 0.9494 1 209 2 242
1.9569 -2.8882 0.9483 1 209 2 242
1.9515 -2.8878 0.9472 1 209 2 242
1.9447 -2.8855 0.9456 1 209 2 242
1.9386 -2.8844 0.9445 1 209 2 242
1.9327 -2.8833 0.9434 1 209 2 242
1.9268 -2.8824 0.9422 1 209 2 242
1.9212 -2.8818 0.9413 1 209 2 242
1.9141 -2.8792 0.9394 1 209 2 242
1.9082 -2.878 0.9384 1 209 2 242
1.9024 -2.8772 0.9373 1 209 2 242
1.8966 -2.8763 0.9362 1 209 2 242
1.8905 -2.8748 0.9351 1 209 2 242
1.8848 -2.8739 0.9338 1 209 2 242
1.8792 -2.8734 0.9333 1 209 2 242
1.8732 -2.8721 0.9317 1 209 2 242
1.8668 -2.8701 0.9305 1 209 2 242
1.8611 -2.8692 0.9292 1 209 2 242
1.8554 -2.8682 0.9282 1 209 2 242
1.8489 -2.8664 0.9271 1 209 2 242
1.8436 -2.8658 0.9257 1 209 2 242
1.8379 -2.8648 0.9251 1 209 2 242
1.8316 -2.8629 0.9237 1 209 2 242
1.8204 -2.8613 0.9216 1 209 2 242
1.8147 -2.8602 0.9204 1 209 2 242
1.8087 -2.8588 0.9205 1 209 2 242
1.8032 -2.858 0.9182 1 209 2 242
1.7974 -2.8569 0.9172 1 209 2 242
1.7917 -2.8558 0.9162 1 209 2 242
1.7855 -2.8538 0.9144 1 209 2 242
1.7797 -2.8526 0.9138 1 209 2 242
1.7745 -2.8522 0.9125 1 209 2 242
1.769 -2.8513 0.912 1 209 2 242
1.7628 -2.8492 0.9104 1 209 2 242
1.7571 -2.8479 0.9103 1 209 2 242
1.7523 -2.8481 0.9087 1 209 2 242
1.7461 -2.8461 0.907 1 209 2 242
1.7405 -2.845 0.9064 1 209 2 242
1.7348 -2.8439 0.9051 1 209 2 242
1.7291 -2.8427 0.9039 1 209 2 242
1.7238 -2.8419 0.9031 1 209 2 242
1.7181 -2.8406 0.9028 1 209 2 242
1.7129 -2.8398 0.9013 1 209 2 242
1.707 -2.8382 0.8997 1 209 2 242
1.7017 -2.8374 0.899 1 209 2 242
1.6964 -2.8366 0.8979 1 209 2 242
1.6908 -2.8352 0.8967 1 209 2 242
2.2281 -2.9414 0.9982 1 209 2 242
2.2211 -2.9396 0.9967 1 209 2 242
2.2141 -2.938 0.9949 1 209 2 242
2.2074 -2.9367 0.9937 1 209 2 242
2.2008 -2.9356 0.9922 1 209 2 242
2.1939 -2.9341 0.9911 1 209 2 242
2.1874 -2.9331 0.9895 1 209 2 242
2.1807 -2.9321 0.9884 1 209 2 242
2.1741 -2.9306 0.9871 1 209 2 242
2.1674 -2.9293 0.9854 1 209 2 242
2.1614 -2.9289 0.9849 1 209 2 242
2.1542 -2.9268 0.9829 1 209 2 242
2.1468 -2.9246 0.9815 1 209 2 242
2.1407 -2.9241 0.9801 1 209 2 242
2.1346 -2.9233 0.979 1 209 2 242
2.1277 -2.9215 0.9775 1 209 2 242
2.1208 -2.9197 0.976 1 209 2 242
2.1154 -2.9199 0.9755 1 209 2 242
2.1083 -2.9179 0.9735 1 209 2 242
2.1023 -2.9172 0.9725 1 209 2 242
2.0957 -2.9158 0.9712 1 209 2 242
2.0894 -2.9147 0.9698 1 209 2 242
2.0827 -2.9131 0.9684 1 209 2 242
2.0762 -2.9118 0.9671 1 209 2 242
2.07 -2.9109 0.9663 1 209 2 242
2.0634 -2.9093 0.9644 1 209 2 242
2.057 -2.908 0.9635 1 209 2 242
2.0506 -2.9068 0.9621 1 209 2 242
2.0441 -2.9052 0.9605 1 209 2 242
2.0377 -2.904 0.9597 1 209 2 242
2.0318 -2.9034 0.9582 1 209 2 242
2.025 -2.9016 0.9569 1 209 2 242
2.0189 -2.9003 0.9556 1 209 2 242
2.0129 -2.8994 0.9545 1 209 2 242
2.0064 -2.8979 0.9532 1 209 2 242
2.0006 -2.8973 0.9519 1 209 2 242
1.9939 -2.8953 0.951 1 209 2 242
1.9876 -2.8941 0.9493 1 209 2 242
1.9813 -2.8927 0.9479 1 209 2 242
1.9754 -2.8917 0.9472 1 209 2 242
1.9687 -2.8897 0.9454 1 209 2 242
1.9636 -2.89 0.945 1 209 2 242
1.957 -2.8884 0.9435 1 209 2 242
1.9506 -2.8864 0.9421 1 209 2 242
1.9446 -2.8855 0.9409 1 209 2 242
1.9383 -2.8839 0.9397 1 209 2 242
1.9326 -2.8832 0.9387 1 209 2 242
1.9268 -2.8824 0.9373 1 209 2 242
1.9204 -2.8806 0.9362 1 209 2 242
1.9143 -2.8795 0.9348 1 209 2 242
1.9078 -2.8775 0.9335 1 209 2 242
1.9024 -2.8773 0.9327 1 209 2 242
1.8962 -2.8755 0.9313 1 209 2 242
1.8909 -2.8755 0.9307 1 209 2 242
1.8847 -2.8738 0.9291 1 209 2 242
1.8729 -2.8715 0.927 1 209 2 242
1.8668 -2.8701 0.9259 1 209 2 242
1.8606 -2.8684 0.9244 1 209 2 242
1.8547 -2.8673 0.9232 1 209 2 242
1.8496 -2.8674 0.923 1 209 2 242
1.8436 -2.8658 0.9211 1 209 2 242
1.8374 -2.8641 0.9202 1 209 2 242
1.8318 -2.8633 0.9192 1 209 2 242
1.8263 -2.8625 0.9178 1 209 2 242
1.8204 -2.8613 0.9169 1 209 2 242
1.8146 -2.86 0.9157 1 209 2 242
1.809 -2.8591 0.9162 1 209 2 242
1.8027 -2.8572 0.9134 1 209 2 242
1.7969 -2.8561 0.9125 1 209 2 242
1.7908 -2.8543 0.9112 1 209 2 242
1.7859 -2.8544 0.9101 1 209 2 242
1.7799 -2.853 0.9094 1 209 2 242
1.7745 -2.8523 0.908 1 209 2 242
1.7687 -2.8508 0.9074 1 209 2 242
1.7626 -2.8489 0.9057 1 209 2 242
1.7574 -2.8484 0.906 1 209 2 242
1.7518 -2.8474 0.9039 1 209 2 242
1.7463 -2.8465 0.9026 1 209 2 242
1.7407 -2.8453 0.9019 1 209 2 242
1.7348 -2.8439 0.9006 1 209 2 242
1.7296 -2.8434 0.8997 1 209 2 242
1.7242 -2.8426 0.8989 1 209 2 242
1.7182 -2.8408 0.8984 1 209 2 242
1.7128 -2.8396 0.8967 1 209 2 242
1.7069 -2.838 0.8952 1 209 2 242
1.7016 -2.8372 0.8944 1 209 2 242
1.6965 -2.8367 0.8934 1 209 2 242
1.6906 -2.8351 0.8921 1 209 2 242
2.2276 -2.9407 0.993 1 209 2 242
2.2216 -2.9403 0.992 1 209 2 242
2.2139 -2.9377 0.9898 1 209 2 242
2.2075 -2.9369 0.9888 1 209 2 242
2.2011 -2.9361 0.9874 1 209 2 242
2.194 -2.9343 0.9862 1 209 2 242
2.1874 -2.9332 0.9846 1 209 2 242
2.1806 -2.9318 0.9834 1 209 2 242
2.1739 -2.9303 0.9821 1 209 2 242
2.167 -2.9288 0.9803 1 209 2 242
2.1613 -2.9288 0.9799 1 209 2 242
2.1543 -2.9269 0.978 1 209 2 242
2.1475 -2.9256 0.9769 1 209 2 242
2.1406 -2.9239 0.9753 1 209 2 242
2.1345 -2.9233 0.9741 1 209 2 242
2.128 -2.9218 0.9727 1 209 2 242
2.1211 -2.9201 0.9713 1 209 2 242
2.115 -2.9194 0.9704 1 209 2 242
2.1087 -2.9184 0.9688 1 209 2 242
2.1021 -2.917 0.9676 1 209 2 242
2.0946 -2.9143 0.9658 1 209 2 242
2.0892 -2.9145 0.9648 1 209 2 242
2.0829 -2.9135 0.9637 1 209 2 242
2.076 -2.9115 0.9622 1 209 2 242
2.0695 -2.9102 0.9614 1 209 2 242
2.0633 -2.9092 0.9595 1 209 2 242
2.0507 -2.9069 0.9574 1 209 2 242
2.0442 -2.9054 0.9559 1 209 2 242
2.0374 -2.9036 0.9548 1 209 2 242
2.0315 -2.903 0.9533 1 209 2 242
2.0248 -2.9012 0.9521 1 209 2 242
2.0192 -2.9008 0.951 1 209 2 242
2.0125 -2.8989 0.9497 1 209 2 242
2.0067 -2.8983 0.9485 1 209 2 242
1.9998 -2.8961 0.9468 1 209 2 242
1.994 -2.8955 0.9462 1 209 2 242
1.9877 -2.8943 0.9445 1 209 2 242
1.9819 -2.8937 0.9436 1 209 2 242
1.9758 -2.8924 0.9426 1 209 2 242
1.9691 -2.8903 0.9408 1 209 2 242
1.9636 -2.8901 0.9403 1 209 2 242
1.9568 -2.888 0.9388 1 209 2 242
1.9507 -2.8867 0.9375 1 209 2 242
1.944 -2.8845 0.9359 1 209 2 242
1.9381 -2.8836 0.9349 1 209 2 242
1.9329 -2.8837 0.9341 1 209 2 242
1.9266 -2.882 0.9327 1 209 2 242
1.9205 -2.8809 0.9316 1 209 2 242
1.9141 -2.8793 0.9301 1 209 2 242
1.9082 -2.878 0.9291 1 209 2 242
1.9023 -2.8771 0.928 1 209 2 242
1.8964 -2.8759 0.9268 1 209 2 242
1.8905 -2.8747 0.9258 1 209 2 242
1.8849 -2.8742 0.9246 1 209 2 242
1.8791 -2.8732 0.924 1 209 2 242
1.8729 -2.8716 0.9223 1 209 2 242
1.8672 -2.8707 0.9215 1 209 2 242
1.8616 -2.87 0.9203 1 209 2 242
1.8554 -2.8683 0.919 1 209 2 242
1.8495 -2.8672 0.9182 1 209 2 242
1.8433 -2.8654 0.9164 1 209 2 242
1.8376 -2.8645 0.9159 1 209 2 242
1.832 -2.8636 0.9146 1 209 2 242
1.8263 -2.8625 0.9132 1 209 2 242
1.8204 -2.8612 0.9124 1 209 2 242
1.8145 -2.8599 0.9111 1 209 2 242
1.8093 -2.8597 0.9117 1 209 2 242
1.8028 -2.8574 0.9089 1 209 2 242
1.7968 -2.8559 0.9078 1 209 2 242
1.7914 -2.8553 0.907 1 209 2 242
1.7855 -2.8537 0.9053 1 209 2 242
1.7802 -2.8534 0.9048 1 209 2 242
1.774 -2.8514 0.9032 1 209 2 242
1.7685 -2.8506 0.9028 1 209 2 242
1.7631 -2.8497 0.9016 1 209 2 242
1.7576 -2.8488 0.9016 1 209 2 242
1.7518 -2.8473 0.8994 1 209 2 242
1.7464 -2.8466 0.8982 1 209 2 242
1.7403 -2.8446 0.8973 1 209 2 242
1.7343 -2.8432 0.8958 1 209 2 242
1.7293 -2.8429 0.895 1 209 2 242
1.7239 -2.8421 0.8943 1 209 2 242
1.7179 -2.8403 0.8937 1 209 2 242
1.713 -2.84 0.8924 1 209 2 242
1.7073 -2.8385 0.8908 1 209 2 242
1.7019 -2.8377 0.8901 1 209 2 242
1.696 -2.8359 0.8888 1 209 2 242
1.6908 -2.8353 0.8878 1 209 2 242
2.2274 -2.9404 0.988 1 209 2 242
2.2214 -2.9399 0.9869 1 209 2 242
2.2143 -2.9383 0.9851 1 209 2 242
2.2077 -2.9372 0.984 1 209 2 242
2.2006 -2.9354 0.9822 1 209 2 242
2.1939 -2.9341 0.9812 1 209 2 242
2.1873 -2.9329 0.9794 1 209 2 242
2.1809 -2.9323 0.9787 1 209 2 242
2.174 -2.9305 0.9773 1 209 2 242
2.1677 -2.9296 0.9757 1 209 2 242
2.1605 -2.9276 0.9745 1 209 2 242
2.1542 -2.9268 0.9731 1 209 2 242
2.1473 -2.9254 0.9719 1 209 2 242
2.1416 -2.9252 0.9707 1 209 2 242
2.1345 -2.9232 0.9692 1 209 2 242
2.1277 -2.9215 0.9677 1 209 2 242
2.121 -2.92 0.9664 1 209 2 242
2.1153 -2.9199 0.9657 1 209 2 242
2.1083 -2.9179 0.9638 1 209 2 242
2.1016 -2.9163 0.9625 1 209 2 242
2.0953 -2.9153 0.9613 1 209 2 242
2.089 -2.9142 0.96 1 209 2 242
2.0832 -2.9139 0.959 1 209 2 242
2.0759 -2.9114 0.9573 1 209 2 242
2.0694 -2.9101 0.9564 1 209 2 242
2.0632 -2.9091 0.9547 1 209 2 242
2.0506 -2.9068 0.9525 1 209 2 242
2.044 -2.9052 0.9509 1 209 2 242
2.0379 -2.9044 0.9503 1 209 2 242
2.0311 -2.9025 0.9483 1 209 2 242
2.0247 -2.9011 0.9473 1 209 2 242
2.0189 -2.9003 0.946 1 209 2 242
2.0128 -2.8993 0.945 1 209 2 242
2.0068 -2.8984 0.9438 1 209 2 242
2.0001 -2.8965 0.9422 1 209 2 242
1.9943 -2.8959 0.9418 1 209 2 242
1.9871 -2.8934 0.9396 1 209 2 242
1.9816 -2.8932 0.9386 1 209 2 242
1.9754 -2.8917 0.9377 1 209 2 242
1.9691 -2.8903 0.9362 1 209 2 242
1.9632 -2.8895 0.9353 1 209 2 242
1.9564 -2.8875 0.9338 1 209 2 242
1.9508 -2.8868 0.9328 1 209 2 242
1.9448 -2.8857 0.9316 1 209 2 242
1.9382 -2.8838 0.9303 1 209 2 242
1.9328 -2.8835 0.9294 1 209 2 242
1.9265 -2.8819 0.9279 1 209 2 242
1.9206 -2.8809 0.927 1 209 2 242
1.914 -2.8792 0.9254 1 209 2 242
1.9085 -2.8785 0.9246 1 209 2 242
1.9024 -2.8773 0.9234 1 209 2 242
1.8966 -2.8762 0.9223 1 209 2 242
1.8913 -2.876 0.9216 1 209 2 242
1.8848 -2.8739 0.9199 1 209 2 242
1.8787 -2.8725 0.9192 1 209 2 242
1.8733 -2.8721 0.9178 1 209 2 242
1.8667 -2.87 0.9166 1 209 2 242
1.8609 -2.869 0.9153 1 209 2 242
1.855 -2.8677 0.9142 1 209 2 242
1.8488 -2.8661 0.9134 1 209 2 242
1.8433 -2.8654 0.9118 1 209 2 242
1.8377 -2.8645 0.9112 1 209 2 242
1.8324 -2.8642 0.9103 1 209 2 242
1.8258 -2.8618 0.9084 1 209 2 242
1.8206 -2.8616 0.9078 1 209 2 242
1.8145 -2.8599 0.9066 1 209 2 242
1.8092 -2.8595 0.9071 1 209 2 242
1.8034 -2.8584 0.9046 1 209 2 242
1.7973 -2.8567 0.9036 1 209 2 242
1.7913 -2.8552 0.9024 1 209 2 242
1.786 -2.8545 0.901 1 209 2 242
1.7802 -2.8534 0.9004 1 209 2 242
1.7738 -2.8511 0.8986 1 209 2 242
1.7692 -2.8518 0.8986 1 209 2 242
1.763 -2.8496 0.8969 1 209 2 242
1.7575 -2.8486 0.897 1 209 2 242
1.7521 -2.8479 0.8951 1 209 2 242
1.7464 -2.8466 0.8937 1 209 2 242
1.7407 -2.8453 0.8929 1 209 2 242
1.7349 -2.8441 0.8917 1 209 2 242
1.7295 -2.8433 0.8907 1 209 2 242
1.7237 -2.8418 0.8896 1 209 2 242
1.7183 -2.8408 0.8894 1 209 2 242
1.7128 -2.8397 0.8878 1 209 2 242
1.7075 -2.839 0.8866 1 209 2 242
1.7017 -2.8374 0.8856 1 209 2 242
1.6961 -2.8362 0.8843 1 209 2 242
1.6907 -2.8351 0.8832 1 209 2 242
2.2276 -2.9407 0.9831 1 209 2 242
2.2209 -2.9394 0.9818 1 209 2 242
2.2139 -2.9378 0.9799 1 209 2 242
2.2071 -2.9364 0.9788 1 209 2 242
2.201 -2.936 0.9775 1 209 2 242
2.1939 -2.9342 0.9763 1 209 2 242
2.1871 -2.9327 0.9745 1 209 2 242
2.181 -2.9324 0.9738 1 209 2 242
2.1737 -2.9301 0.9722 1 209 2 242
2.1673 -2.9292 0.9707 1 209 2 242
2.1606 -2.9278 0.9698 1 209 2 242
2.1537 -2.9262 0.968 1 209 2 242
2.1474 -2.9255 0.9672 1 209 2 242
2.1411 -2.9245 0.9658 1 209 2 242
2.1349 -2.9238 0.9645 1 209 2 242
2.1272 -2.9208 0.9627 1 209 2 242
2.1212 -2.9202 0.9616 1 209 2 242
2.1149 -2.9192 0.9606 1 209 2 242
2.1087 -2.9185 0.9591 1 209 2 242
2.1018 -2.9166 0.9578 1 209 2 242
2.0952 -2.9152 0.9564 1 209 2 242
2.0895 -2.9149 0.9554 1 209 2 242
2.0826 -2.913 0.9539 1 209 2 242
2.0763 -2.912 0.9527 1 209 2 242
2.0698 -2.9106 0.9519 1 209 2 242
2.0632 -2.909 0.9498 1 209 2 242
2.057 -2.908 0.949 1 209 2 242
2.0507 -2.9068 0.9477 1 209 2 242
2.0442 -2.9054 0.9463 1 209 2 242
2.0382 -2.9049 0.9457 1 209 2 242
2.0315 -2.903 0.9436 1 209 2 242
2.0245 -2.9007 0.9424 1 209 2 242
2.0193 -2.9009 0.9416 1 209 2 242
2.0123 -2.8986 0.94 1 209 2 242
2.006 -2.8973 0.9387 1 209 2 242
2.0003 -2.8969 0.9376 1 209 2 242
1.994 -2.8955 0.9369 1 209 2 242
1.9876 -2.8941 0.935 1 209 2 242
1.9815 -2.8931 0.934 1 209 2 242
1.975 -2.8911 0.9328 1 209 2 242
1.9695 -2.891 0.9316 1 209 2 242
1.9632 -2.8894 0.9307 1 209 2 242
1.9567 -2.8879 0.9294 1 209 2 242
1.9501 -2.8858 0.9279 1 209 2 242
1.9449 -2.8859 0.9269 1 209 2 242
1.9389 -2.8848 0.9259 1 209 2 242
1.9325 -2.8831 0.9246 1 209 2 242
1.9263 -2.8816 0.9232 1 209 2 242
1.9203 -2.8806 0.9222 1 209 2 242
1.9143 -2.8796 0.9209 1 209 2 242
1.9082 -2.8781 0.9199 1 209 2 242
1.9027 -2.8778 0.9189 1 209 2 242
1.8966 -2.8762 0.9177 1 209 2 242
1.8905 -2.8747 0.9165 1 209 2 242
1.8848 -2.874 0.9153 1 209 2 242
1.8786 -2.8723 0.9145 1 209 2 242
1.873 -2.8716 0.9131 1 209 2 242
1.8672 -2.8707 0.9122 1 209 2 242
1.8609 -2.869 0.9107 1 209 2 242
1.8551 -2.8678 0.9096 1 209 2 242
1.8492 -2.8669 0.9089 1 209 2 242
1.8439 -2.8662 0.9075 1 209 2 242
1.8379 -2.8649 0.9068 1 209 2 242
1.8321 -2.8638 0.9056 1 209 2 242
1.8259 -2.862 0.9039 1 209 2 242
1.8206 -2.8616 0.9034 1 209 2 242
1.8145 -2.8599 0.902 1 209 2 242
1.8085 -2.8585 0.9022 1 209 2 242
1.803 -2.8577 0.8999 1 209 2 242
1.7974 -2.8569 0.8991 1 209 2 242
1.7915 -2.8555 0.898 1 209 2 242
1.7857 -2.854 0.8964 1 209 2 242
1.7803 -2.8536 0.896 1 209 2 242
1.774 -2.8515 0.8942 1 209 2 242
1.7683 -2.8503 0.8936 1 209 2 242
1.7637 -2.8506 0.8928 1 209 2 242
1.7576 -2.8487 0.8926 1 209 2 242
1.7518 -2.8474 0.8904 1 209 2 242
1.7462 -2.8463 0.8891 1 209 2 242
1.7406 -2.8452 0.8885 1 209 2 242
1.7349 -2.8441 0.8872 1 209 2 242
1.7296 -2.8434 0.8862 1 209 2 242
1.7241 -2.8424 0.8855 1 209 2 242
1.7185 -2.8412 0.8851 1 209 2 242
1.713 -2.84 0.8835 1 209 2 242
1.7071 -2.8382 0.8818 1 209 2 242
1.7016 -2.8373 0.8811 1 209 2 242
1.6963 -2.8365 0.8801 1 209 2 242
1.6907 -2.8352 0.8789 1 209 2 242
2.2281 -2.9413 0.9785 1 209 2 242
2.2216 -2.9402 0.9771 1 209 2 242
2.2145 -2.9385 0.9752 1 209 2 242
2.2008 -2.9356 0.9724 1 209 2 242
2.1941 -2.9345 0.9715 1 209 2 242
2.1874 -2.9331 0.9698 1 209 2 242
2.1804 -2.9316 0.9686 1 209 2 242
2.1741 -2.9306 0.9675 1 209 2 242
2.1672 -2.929 0.9657 1 209 2 242
2.1608 -2.9281 0.9649 1 209 2 242
2.1545 -2.9272 0.9634 1 209 2 242
2.1474 -2.9255 0.9623 1 209 2 242
2.1407 -2.924 0.9607 1 209 2 242
2.1344 -2.9231 0.9594 1 209 2 242
2.1283 -2.9223 0.9583 1 209 2 242
2.1207 -2.9196 0.9565 1 209 2 242
2.1149 -2.9192 0.9559 1 209 2 242
2.1084 -2.918 0.9542 1 209 2 242
2.1019 -2.9167 0.953 1 209 2 242
2.0958 -2.916 0.9519 1 209 2 242
2.089 -2.9143 0.9503 1 209 2 242
2.0825 -2.9129 0.949 1 209 2 242
2.0765 -2.9122 0.948 1 209 2 242
2.0692 -2.9097 0.9467 1 209 2 242
2.0634 -2.9094 0.9452 1 209 2 242
2.0568 -2.9077 0.9442 1 209 2 242
2.0499 -2.9058 0.9426 1 209 2 242
2.0442 -2.9054 0.9416 1 209 2 242
2.0379 -2.9045 0.9409 1 209 2 242
2.0317 -2.9033 0.9391 1 209 2 242
2.0249 -2.9014 0.9379 1 209 2 242
2.0188 -2.9002 0.9366 1 209 2 242
2.0124 -2.8987 0.9353 1 209 2 242
2.0061 -2.8974 0.934 1 209 2 242
2.0003 -2.8968 0.9328 1 209 2 242
1.9939 -2.8953 0.9321 1 209 2 242
1.9876 -2.8941 0.9303 1 209 2 242
1.982 -2.8938 0.9294 1 209 2 242
1.9754 -2.8918 0.9283 1 209 2 242
1.9693 -2.8905 0.9269 1 209 2 242
1.9627 -2.8888 0.9256 1 209 2 242
1.9569 -2.8882 0.9246 1 209 2 242
1.9505 -2.8863 0.9233 1 209 2 242
1.9444 -2.8852 0.922 1 209 2 242
1.9393 -2.8853 0.9214 1 209 2 242
1.9325 -2.883 0.9199 1 209 2 242
1.9265 -2.8819 0.9185 1 209 2 242
1.9207 -2.8811 0.9177 1 209 2 242
1.9141 -2.8793 0.9161 1 209 2 242
1.9085 -2.8785 0.9153 1 209 2 242
1.9023 -2.8771 0.914 1 209 2 242
1.8964 -2.8759 0.9129 1 209 2 242
1.891 -2.8755 0.9122 1 209 2 242
1.8848 -2.874 0.9107 1 209 2 242
1.8792 -2.8733 0.9102 1 209 2 242
1.8726 -2.8711 0.9084 1 209 2 242
1.8669 -2.8702 0.9075 1 209 2 242
1.8616 -2.8699 0.9064 1 209 2 242
1.8544 -2.8668 0.9047 1 209 2 242
1.849 -2.8665 0.9043 1 209 2 242
1.8437 -2.866 0.9029 1 209 2 242
1.8372 -2.8637 0.9018 1 209 2 242
1.832 -2.8636 0.901 1 209 2 242
1.8257 -2.8617 0.8992 1 209 2 242
1.8204 -2.8612 0.8987 1 209 2 242
1.8144 -2.8597 0.8975 1 209 2 242
1.8087 -2.8587 0.8977 1 209 2 242
1.8028 -2.8573 0.8952 1 209 2 242
1.7967 -2.8558 0.8942 1 209 2 242
1.7916 -2.8557 0.8935 1 209 2 242
1.7858 -2.8542 0.8919 1 209 2 242
1.7798 -2.8528 0.8912 1 209 2 242
1.7741 -2.8516 0.8897 1 209 2 242
1.7691 -2.8516 0.8895 1 209 2 242
1.7629 -2.8494 0.8878 1 209 2 242
1.7569 -2.8476 0.8877 1 209 2 242
1.7517 -2.8471 0.886 1 209 2 242
1.7467 -2.8471 0.8848 1 209 2 242
1.741 -2.8459 0.8841 1 209 2 242
1.7348 -2.8439 0.8827 1 209 2 242
1.7295 -2.8433 0.8817 1 209 2 242
1.7235 -2.8415 0.8806 1 209 2 242
1.7181 -2.8406 0.8804 1 209 2 242
1.7126 -2.8393 0.8788 1 209 2 242
1.7074 -2.8387 0.8776 1 209 2 242
1.7019 -2.8376 0.8768 1 209 2 242
1.6963 -2.8365 0.8755 1 209 2 242
1.6908 -2.8354 0.8744 1 209 2 242
2.2278 -2.9409 0.9733 1 209 2 242
2.2211 -2.9396 0.9719 1 209 2 242
2.2146 -2.9386 0.9703 1 209 2 242
2.201 -2.9359 0.9676 1 209 2 242
2.1938 -2.934 0.9664 1 209 2 242
2.1873 -2.933 0.9648 1 209 2 242
2.1806 -2.9319 0.9638 1 209 2 242
2.1734 -2.9298 0.9623 1 209 2 242
2.1678 -2.9299 0.9611 1 209 2 242
2.1608 -2.928 0.9601 1 209 2 242
2.1542 -2.9268 0.9584 1 209 2 242
2.1475 -2.9256 0.9574 1 209 2 242
2.1413 -2.9248 0.9561 1 209 2 242
2.1344 -2.9231 0.9545 1 209 2 242
2.1283 -2.9223 0.9534 1 209 2 242
2.1214 -2.9206 0.952 1 209 2 242
2.1148 -2.9192 0.9509 1 209 2 242
2.1086 -2.9183 0.9494 1 209 2 242
2.1018 -2.9166 0.9481 1 209 2 242
2.0951 -2.915 0.9467 1 209 2 242
2.0893 -2.9147 0.9457 1 209 2 242
2.0827 -2.9131 0.9443 1 209 2 242
2.0757 -2.9112 0.9428 1 209 2 242
2.0693 -2.9098 0.942 1 209 2 242
2.0632 -2.9091 0.9402 1 209 2 242
2.0571 -2.9081 0.9394 1 209 2 242
2.0502 -2.9062 0.938 1 209 2 242
2.0439 -2.905 0.9366 1 209 2 242
2.0379 -2.9043 0.9359 1 209 2 242
2.0314 -2.9028 0.9341 1 209 2 242
2.0248 -2.9012 0.9331 1 209 2 242
2.0192 -2.9008 0.932 1 209 2 242
2.0122 -2.8984 0.9305 1 209 2 242
2.0067 -2.8983 0.9297 1 209 2 242
2.0001 -2.8965 0.928 1 209 2 242
1.994 -2.8955 0.9274 1 209 2 242
1.9876 -2.8942 0.9256 1 209 2 242
1.9818 -2.8935 0.9247 1 209 2 242
1.9752 -2.8915 0.9235 1 209 2 242
1.9695 -2.891 0.9222 1 209 2 242
1.9631 -2.8893 0.9212 1 209 2 242
1.9568 -2.888 0.92 1 209 2 242
1.9507 -2.8867 0.9188 1 209 2 242
1.9445 -2.8853 0.9174 1 209 2 242
1.9387 -2.8845 0.9165 1 209 2 242
1.9327 -2.8834 0.9154 1 209 2 242
1.9264 -2.8818 0.9139 1 209 2 242
1.9204 -2.8806 0.913 1 209 2 242
1.9148 -2.8803 0.9118 1 209 2 242
1.9089 -2.8791 0.9109 1 209 2 242
1.9021 -2.8769 0.9093 1 209 2 242
1.8963 -2.8757 0.9083 1 209 2 242
1.891 -2.8755 0.9075 1 209 2 242
1.8845 -2.8735 0.9059 1 209 2 242
1.879 -2.873 0.9055 1 209 2 242
1.8728 -2.8715 0.9038 1 209 2 242
1.8669 -2.8702 0.9029 1 209 2 242
1.861 -2.8691 0.9016 1 209 2 242
1.8553 -2.8682 0.9006 1 209 2 242
1.849 -2.8665 0.8997 1 209 2 242
1.8434 -2.8654 0.8981 1 209 2 242
1.8377 -2.8645 0.8975 1 209 2 242
1.8316 -2.8629 0.8962 1 209 2 242
1.8259 -2.862 0.8949 1 209 2 242
1.8206 -2.8616 0.8943 1 209 2 242
1.8145 -2.8599 0.8929 1 209 2 242
1.8089 -2.8591 0.8933 1 209 2 242
1.8032 -2.858 0.8909 1 209 2 242
1.7974 -2.857 0.8901 1 209 2 242
1.7912 -2.855 0.8888 1 209 2 242
1.7862 -2.8549 0.8876 1 209 2 242
1.7799 -2.8529 0.8867 1 209 2 242
1.7743 -2.8519 0.8853 1 209 2 242
1.7686 -2.8508 0.8848 1 209 2 242
1.7633 -2.85 0.8836 1 209 2 242
1.7571 -2.848 0.8833 1 209 2 242
1.7516 -2.8471 0.8814 1 209 2 242
1.7462 -2.8463 0.8801 1 209 2 242
1.7408 -2.8456 0.8796 1 209 2 242
1.735 -2.8443 0.8782 1 209 2 242
1.7293 -2.8429 0.8771 1 209 2 242
1.7241 -2.8424 0.8765 1 209 2 242
1.7177 -2.8399 0.8757 1 209 2 242
1.713 -2.8399 0.8746 1 209 2 242
1.7079 -2.8395 0.8733 1 209 2 242
1.7017 -2.8374 0.8722 1 209 2 242
1.6966 -2.8369 0.8713 1 209 2 242
1.6906 -2.835 0.87 1 209 2 242
2.2275 -2.9406 0.9683 1 209 2 242
2.2211 -2.9396 0.967 1 209 2 242
2.2146 -2.9387 0.9655 1 209 2 242
2.2075 -2.9369 0.9641 1 209 2 242
2.201 -2.936 0.9627 1 209 2 242
2.1943 -2.9347 0.9617 1 209 2 242
2.1871 -2.9328 0.9597 1 209 2 242
2.1802 -2.9314 0.9587 1 209 2 242
2.1736 -2.93 0.9575 1 209 2 242
2.1669 -2.9286 0.9558 1 209 2 242
2.1611 -2.9284 0.9552 1 209 2 242
2.1546 -2.9273 0.9537 1 209 2 242
2.1471 -2.9251 0.9524 1 209 2 242
2.1408 -2.9242 0.951 1 209 2 242
2.1344 -2.9231 0.9497 1 209 2 242
2.1282 -2.9222 0.9485 1 209 2 242
2.1212 -2.9202 0.947 1 209 2 242
2.1154 -2.92 0.9463 1 209 2 242
2.1086 -2.9183 0.9446 1 209 2 242
2.1017 -2.9164 0.9432 1 209 2 242
2.0953 -2.9153 0.942 1 209 2 242
2.089 -2.9142 0.9407 1 209 2 242
2.0827 -2.9132 0.9395 1 209 2 242
2.0758 -2.9113 0.9381 1 209 2 242
2.0699 -2.9107 0.9374 1 209 2 242
2.0633 -2.9092 0.9356 1 209 2 242
2.0571 -2.9082 0.9348 1 209 2 242
2.0505 -2.9066 0.9333 1 209 2 242
2.044 -2.9051 0.9319 1 209 2 242
2.0381 -2.9047 0.9313 1 209 2 242
2.0314 -2.9028 0.9294 1 209 2 242
2.0249 -2.9013 0.9283 1 209 2 242
2.0191 -2.9007 0.9271 1 209 2 242
2.0124 -2.8987 0.9258 1 209 2 242
2.0058 -2.8971 0.9244 1 209 2 242
1.9998 -2.8961 0.9231 1 209 2 242
1.9938 -2.8952 0.9226 1 209 2 242
1.9881 -2.8949 0.9212 1 209 2 242
1.9819 -2.8937 0.9201 1 209 2 242
1.9754 -2.8917 0.9189 1 209 2 242
1.9694 -2.8908 0.9176 1 209 2 242
1.9625 -2.8884 0.9161 1 209 2 242
1.9568 -2.888 0.9152 1 209 2 242
1.951 -2.887 0.9141 1 209 2 242
1.9449 -2.8858 0.9129 1 209 2 242
1.9394 -2.8855 0.9121 1 209 2 242
1.9327 -2.8834 0.9107 1 209 2 242
1.9265 -2.882 0.9092 1 209 2 242
1.9205 -2.8808 0.9083 1 209 2 242
1.9143 -2.8796 0.9069 1 209 2 242
1.9086 -2.8786 0.906 1 209 2 242
1.9024 -2.8773 0.9048 1 209 2 242
1.8964 -2.8759 0.9037 1 209 2 242
1.8908 -2.8752 0.9028 1 209 2 242
1.8852 -2.8746 0.9016 1 209 2 242
1.8789 -2.8729 0.9008 1 209 2 242
1.8728 -2.8714 0.8991 1 209 2 242
1.8674 -2.871 0.8985 1 209 2 242
1.8611 -2.8692 0.897 1 209 2 242
1.8558 -2.8689 0.8962 1 209 2 242
1.8494 -2.8671 0.8953 1 209 2 242
1.8438 -2.8661 0.8937 1 209 2 242
1.8321 -2.8638 0.8919 1 209 2 242
1.8263 -2.8626 0.8904 1 209 2 242
1.8202 -2.861 0.8895 1 209 2 242
1.8142 -2.8594 0.8883 1 209 2 242
1.8085 -2.8584 0.8886 1 209 2 242
1.8034 -2.8582 0.8864 1 209 2 242
1.7973 -2.8568 0.8855 1 209 2 242
1.7908 -2.8544 0.884 1 209 2 242
1.7861 -2.8546 0.883 1 209 2 242
1.78 -2.8531 0.8823 1 209 2 242
1.7747 -2.8525 0.8809 1 209 2 242
1.7689 -2.8512 0.8804 1 209 2 242
1.7633 -2.85 0.879 1 209 2 242
1.7572 -2.8482 0.8789 1 209 2 242
1.7518 -2.8475 0.8771 1 209 2 242
1.7463 -2.8464 0.8756 1 209 2 242
1.7406 -2.8452 0.875 1 209 2 242
1.7345 -2.8435 0.8736 1 209 2 242
1.7291 -2.8427 0.8726 1 209 2 242
1.7241 -2.8425 0.872 1 209 2 242
1.7181 -2.8407 0.8715 1 209 2 242
1.7133 -2.8405 0.8703 1 209 2 242
1.707 -2.8381 0.8686 1 209 2 242
1.7015 -2.837 0.8677 1 209 2 242
1.6964 -2.8367 0.8668 1 209 2 242
1.6907 -2.8352 0.8655 1 209 2 242
2.221 -2.9395 0.962 1 209 2 242
2.2142 -2.9381 0.9603 1 209 2 242
2.2074 -2.9368 0.9592 1 209 2 242
2.1939 -2.9341 0.9566 1 209 2 242
2.1869 -2.9325 0.9548 1 209 2 242
2.181 -2.9325 0.9541 1 209 2 242
2.1674 -2.9293 0.9511 1 209 2 242
2.1604 -2.9276 0.9502 1 209 2 242
2.1544 -2.9271 0.9488 1 209 2 242
2.1477 -2.9258 0.9478 1 209 2 242
2.1412 -2.9247 0.9463 1 209 2 242
2.1342 -2.9228 0.9447 1 209 2 242
2.1275 -2.9212 0.9434 1 209 2 242
2.1215 -2.9207 0.9423 1 209 2 242
2.1149 -2.9193 0.9413 1 209 2 242
2.1082 -2.9178 0.9396 1 209 2 242
2.1016 -2.9163 0.9384 1 209 2 242
2.0954 -2.9154 0.9372 1 209 2 242
2.0891 -2.9144 0.9359 1 209 2 242
2.0826 -2.9131 0.9347 1 209 2 242
2.0763 -2.912 0.9335 1 209 2 242
2.0699 -2.9107 0.9327 1 209 2 242
2.0633 -2.9092 0.9307 1 209 2 242
2.0564 -2.9071 0.9296 1 209 2 242
2.0506 -2.9068 0.9286 1 209 2 242
2.0442 -2.9054 0.9271 1 209 2 242
2.0374 -2.9037 0.9262 1 209 2 242
2.0317 -2.9033 0.9248 1 209 2 242
2.025 -2.9015 0.9236 1 209 2 242
2.0187 -2.9001 0.9223 1 209 2 242
2.0126 -2.899 0.9211 1 209 2 242
2.0066 -2.8982 0.9202 1 209 2 242
2.0006 -2.8972 0.9187 1 209 2 242
1.9941 -2.8956 0.918 1 209 2 242
1.9881 -2.8948 0.9164 1 209 2 242
1.9812 -2.8927 0.915 1 209 2 242
1.9755 -2.8919 0.9142 1 209 2 242
1.9693 -2.8906 0.9127 1 209 2 242
1.9627 -2.8888 0.9117 1 209 2 242
1.9568 -2.888 0.9107 1 209 2 242
1.9505 -2.8863 0.9094 1 209 2 242
1.9445 -2.8853 0.908 1 209 2 242
1.9387 -2.8845 0.9071 1 209 2 242
1.932 -2.8823 0.9057 1 209 2 242
1.9266 -2.8822 0.9048 1 209 2 242
1.9201 -2.8802 0.9036 1 209 2 242
1.9142 -2.8794 0.9022 1 209 2 242
1.9089 -2.8791 0.9016 1 209 2 242
1.9023 -2.8771 0.9001 1 209 2 242
1.8966 -2.8762 0.8992 1 209 2 242
1.8908 -2.8752 0.8982 1 209 2 242
1.8847 -2.8739 0.8968 1 209 2 242
1.8791 -2.8731 0.8963 1 209 2 242
1.8735 -2.8725 0.8949 1 209 2 242
1.8672 -2.8706 0.8938 1 209 2 242
1.8613 -2.8696 0.8926 1 209 2 242
1.8552 -2.868 0.8914 1 209 2 242
1.8496 -2.8675 0.8909 1 209 2 242
1.8441 -2.8666 0.8893 1 209 2 242
1.8377 -2.8645 0.8884 1 209 2 242
1.8317 -2.8631 0.8871 1 209 2 242
1.8258 -2.8618 0.8857 1 209 2 242
1.8205 -2.8614 0.8851 1 209 2 242
1.8146 -2.8601 0.8839 1 209 2 242
1.8085 -2.8583 0.884 1 209 2 242
1.8029 -2.8575 0.8816 1 209 2 242
1.7967 -2.8558 0.8806 1 209 2 242
1.7915 -2.8555 0.8799 1 209 2 242
1.786 -2.8544 0.8784 1 209 2 242
1.7799 -2.8529 0.8777 1 209 2 242
1.7744 -2.8521 0.8763 1 209 2 242
1.7685 -2.8506 0.8757 1 209 2 242
1.7633 -2.8499 0.8746 1 209 2 242
1.7577 -2.8489 0.8746 1 209 2 242
1.7518 -2.8473 0.8725 1 209 2 242
1.7463 -2.8465 0.8712 1 209 2 242
1.7405 -2.845 0.8705 1 209 2 242
1.7346 -2.8436 0.8692 1 209 2 242
1.7301 -2.8442 0.8686 1 209 2 242
1.7243 -2.8428 0.8677 1 209 2 242
1.7186 -2.8413 0.8673 1 209 2 242
1.7127 -2.8395 0.8655 1 209 2 242
1.7077 -2.8392 0.8644 1 209 2 242
1.702 -2.8379 0.8635 1 209 2 242
1.6961 -2.836 0.8622 1 209 2 242
1.6909 -2.8355 0.8613 1 209 2 242
2.2277 -2.9408 0.9585 1 209 2 242
2.2147 -2.9388 0.9557 1 209 2 242
2.2008 -2.9356 0.9527 1 209 2 242
2.1941 -2.9344 0.9518 1 209 2 242
2.1874 -2.9332 0.9501 1 209 2 242
2.1805 -2.9318 0.949 1 209 2 242
2.1742 -2.9307 0.9479 1 209 2 242
2.1674 -2.9293 0.9462 1 209 2 242
2.155 -2.9279 0.9441 1 209 2 242
2.1469 -2.9248 0.9426 1 209 2 242
2.1403 -2.9234 0.9411 1 209 2 242
2.134 -2.9225 0.9398 1 209 2 242
2.1281 -2.922 0.9388 1 209 2 242
2.1209 -2.9198 0.9372 1 209 2 242
2.1147 -2.919 0.9365 1 209 2 242
2.1079 -2.9173 0.9346 1 209 2 242
2.1019 -2.9167 0.9337 1 209 2 242
2.0954 -2.9154 0.9324 1 209 2 242
2.0889 -2.9142 0.9311 1 209 2 242
2.0821 -2.9124 0.9296 1 209 2 242
2.0756 -2.911 0.9284 1 209 2 242
2.0695 -2.9102 0.9276 1 209 2 242
2.0635 -2.9094 0.9261 1 209 2 242
2.0565 -2.9074 0.925 1 209 2 242
2.0505 -2.9066 0.9238 1 209 2 242
2.0446 -2.906 0.9227 1 209 2 242
2.0373 -2.9036 0.9214 1 209 2 242
2.0314 -2.9029 0.9199 1 209 2 242
2.0253 -2.9019 0.919 1 209 2 242
2.0188 -2.9002 0.9176 1 209 2 242
2.0128 -2.8994 0.9165 1 209 2 242
2.0063 -2.8977 0.9152 1 209 2 242
2.0002 -2.8967 0.9139 1 209 2 242
1.9939 -2.8954 0.9132 1 209 2 242
1.9879 -2.8947 0.9116 1 209 2 242
1.9811 -2.8924 0.9102 1 209 2 242
1.9757 -2.8922 0.9096 1 209 2 242
1.9693 -2.8907 0.9081 1 209 2 242
1.9625 -2.8885 0.9068 1 209 2 242
1.957 -2.8883 0.906 1 209 2 242
1.9511 -2.8873 0.9049 1 209 2 242
1.9441 -2.8847 0.9032 1 209 2 242
1.939 -2.8849 0.9026 1 209 2 242
1.933 -2.8838 0.9015 1 209 2 242
1.9265 -2.882 0.9 1 209 2 242
1.9204 -2.8807 0.899 1 209 2 242
1.9139 -2.879 0.8975 1 209 2 242
1.9084 -2.8784 0.8967 1 209 2 242
1.9031 -2.8784 0.8959 1 209 2 242
1.897 -2.8768 0.8947 1 209 2 242
1.8903 -2.8745 0.8933 1 209 2 242
1.885 -2.8742 0.8923 1 209 2 242
1.8794 -2.8737 0.8919 1 209 2 242
1.8732 -2.8721 0.8903 1 209 2 242
1.8669 -2.8703 0.8891 1 209 2 242
1.8613 -2.8696 0.8879 1 209 2 242
1.8551 -2.8678 0.8867 1 209 2 242
1.8489 -2.8663 0.8859 1 209 2 242
1.8435 -2.8657 0.8845 1 209 2 242
1.8375 -2.8643 0.8837 1 209 2 242
1.8326 -2.8645 0.883 1 209 2 242
1.826 -2.8621 0.8811 1 209 2 242
1.8202 -2.861 0.8804 1 209 2 242
1.8146 -2.86 0.8794 1 209 2 242
1.8093 -2.8596 0.8798 1 209 2 242
1.8026 -2.8571 0.877 1 209 2 242
1.7972 -2.8567 0.8764 1 209 2 242
1.7914 -2.8553 0.8753 1 209 2 242
1.7861 -2.8547 0.874 1 209 2 242
1.78 -2.8531 0.8732 1 209 2 242
1.7748 -2.8527 0.872 1 209 2 242
1.7688 -2.8511 0.8714 1 209 2 242
1.7633 -2.8499 0.8701 1 209 2 242
1.7577 -2.8489 0.8701 1 209 2 242
1.7519 -2.8476 0.8682 1 209 2 242
1.7465 -2.8468 0.8668 1 209 2 242
1.7346 -2.8436 0.8647 1 209 2 242
1.7291 -2.8425 0.8636 1 209 2 242
1.7241 -2.8424 0.863 1 209 2 242
1.7184 -2.8411 0.8629 1 209 2 242
1.7125 -2.8391 0.861 1 209 2 242
1.707 -2.8381 0.8597 1 209 2 242
1.7023 -2.8383 0.8592 1 209 2 242
1.6961 -2.836 0.8577 1 209 2 242
1.6907 -2.8352 0.8566 1 209 2 242
2.2279 -2.9411 0.9535 1 209 2 242
2.2208 -2.9393 0.952 1 209 2 242
2.2145 -2.9386 0.9505 1 209 2 242
2.2078 -2.9373 0.9495 1 209 2 242
2.2009 -2.9358 0.948 1 209 2 242
2.1937 -2.9339 0.9467 1 209 2 242
2.1877 -2.9336 0.9454 1 209 2 242
2.181 -2.9324 0.9443 1 209 2 242
2.174 -2.9305 0.943 1 209 2 242
2.1678 -2.9299 0.9415 1 209 2 242
2.1608 -2.9281 0.9406 1 209 2 242
2.1541 -2.9267 0.9389 1 209 2 242
2.1479 -2.9261 0.9381 1 209 2 242
2.1404 -2.9236 0.9363 1 209 2 242
2.1344 -2.9231 0.9351 1 209 2 242
2.1277 -2.9215 0.9338 1 209 2 242
2.121 -2.92 0.9324 1 209 2 242
2.1151 -2.9196 0.9317 1 209 2 242
2.1081 -2.9176 0.93 1 209 2 242
2.1019 -2.9167 0.9288 1 209 2 242
2.0955 -2.9155 0.9276 1 209 2 242
2.0887 -2.9138 0.9261 1 209 2 242
2.0819 -2.9121 0.9247 1 209 2 242
2.0757 -2.9111 0.9236 1 209 2 242
2.0696 -2.9103 0.923 1 209 2 242
2.0634 -2.9093 0.9213 1 209 2 242
2.0566 -2.9075 0.9201 1 209 2 242
2.0511 -2.9074 0.9193 1 209 2 242
2.0442 -2.9054 0.9177 1 209 2 242
2.0372 -2.9034 0.9166 1 209 2 242
2.0313 -2.9028 0.915 1 209 2 242
2.0254 -2.9021 0.9143 1 209 2 242
2.0193 -2.901 0.9131 1 209 2 242
2.0129 -2.8994 0.9119 1 209 2 242
2.0069 -2.8986 0.9109 1 209 2 242
2.0007 -2.8975 0.9094 1 209 2 242
1.9939 -2.8953 0.9085 1 209 2 242
1.9871 -2.8935 0.9067 1 209 2 242
1.9816 -2.8932 0.9058 1 209 2 242
1.975 -2.8911 0.9046 1 209 2 242
1.9691 -2.8904 0.9032 1 209 2 242
1.9632 -2.8894 0.9025 1 209 2 242
1.957 -2.8884 0.9014 1 209 2 242
1.9507 -2.8867 0.9001 1 209 2 242
1.9445 -2.8854 0.8987 1 209 2 242
1.9388 -2.8847 0.8979 1 209 2 242
1.9321 -2.8825 0.8964 1 209 2 242
1.9264 -2.8818 0.8953 1 209 2 242
1.9204 -2.8806 0.8945 1 209 2 242
1.9148 -2.8803 0.8933 1 209 2 242
1.9091 -2.8793 0.8925 1 209 2 242
1.903 -2.8783 0.8912 1 209 2 242
1.8969 -2.8766 0.8901 1 209 2 242
1.8904 -2.8746 0.8888 1 209 2 242
1.8846 -2.8737 0.8875 1 209 2 242
1.8787 -2.8726 0.8869 1 209 2 242
1.8736 -2.8726 0.8858 1 209 2 242
1.8664 -2.8695 0.8843 1 209 2 242
1.861 -2.869 0.8833 1 209 2 242
1.855 -2.8676 0.8821 1 209 2 242
1.8493 -2.8669 0.8815 1 209 2 242
1.8437 -2.866 0.8801 1 209 2 242
1.8377 -2.8645 0.8793 1 209 2 242
1.8316 -2.863 0.878 1 209 2 242
1.8259 -2.862 0.8766 1 209 2 242
1.8207 -2.8617 0.8761 1 209 2 242
1.8146 -2.8601 0.8748 1 209 2 242
1.8089 -2.8591 0.8751 1 209 2 242
1.8035 -2.8584 0.8729 1 209 2 242
1.797 -2.8563 0.8717 1 209 2 242
1.7915 -2.8555 0.8708 1 209 2 242
1.7857 -2.854 0.8693 1 209 2 242
1.7804 -2.8537 0.8689 1 209 2 242
1.7746 -2.8525 0.8674 1 209 2 242
1.7686 -2.8507 0.8667 1 209 2 242
1.7627 -2.849 0.8653 1 209 2 242
1.7576 -2.8488 0.8656 1 209 2 242
1.7517 -2.8472 0.8635 1 209 2 242
1.746 -2.8459 0.8621 1 209 2 242
1.7408 -2.8455 0.8617 1 209 2 242
1.7349 -2.8442 0.8604 1 209 2 242
1.7295 -2.8433 0.8594 1 209 2 242
1.724 -2.8422 0.8586 1 209 2 242
1.7182 -2.8407 0.8582 1 209 2 242
1.7128 -2.8397 0.8567 1 209 2 242
1.7075 -2.839 0.8555 1 209 2 242
1.702 -2.8378 0.8546 1 209 2 242
1.6964 -2.8365 0.8535 1 209 2 242
1.6911 -2.8358 0.8525 1 209 2 242
2.2213 -2.9398 0.9474 1 209 2 242
2.2076 -2.9371 0.9445 1 209 2 242
2.2009 -2.9358 0.9429 1 209 2 242
2.1943 -2.9347 0.9421 1 209 2 242
2.1876 -2.9334 0.9404 1 209 2 242
2.1806 -2.9319 0.9393 1 209 2 242
2.1674 -2.9293 0.9364 1 209 2 242
2.1605 -2.9277 0.9356 1 209 2 242
2.1543 -2.9269 0.9341 1 209 2 242
2.1474 -2.9255 0.9331 1 209 2 242
2.1406 -2.9238 0.9315 1 209 2 242
2.134 -2.9226 0.9301 1 209 2 242
2.1281 -2.922 0.9291 1 209 2 242
2.1213 -2.9204 0.9277 1 209 2 242
2.1144 -2.9186 0.9266 1 209 2 242
2.1082 -2.9178 0.9251 1 209 2 242
2.1022 -2.9171 0.9243 1 209 2 242
2.0956 -2.9157 0.9229 1 209 2 242
2.0884 -2.9135 0.9212 1 209 2 242
2.0825 -2.913 0.9202 1 209 2 242
2.0763 -2.9119 0.9191 1 209 2 242
2.0693 -2.9099 0.918 1 209 2 242
2.0627 -2.9084 0.9162 1 209 2 242
2.0571 -2.9081 0.9157 1 209 2 242
2.051 -2.9073 0.9145 1 209 2 242
2.0437 -2.9047 0.9127 1 209 2 242
2.0376 -2.9039 0.912 1 209 2 242
2.0312 -2.9026 0.9103 1 209 2 242
2.0247 -2.9011 0.9093 1 209 2 242
2.019 -2.9004 0.9081 1 209 2 242
2.0125 -2.8989 0.9069 1 209 2 242
2.0067 -2.8983 0.906 1 209 2 242
1.9999 -2.8962 0.9043 1 209 2 242
1.9938 -2.8951 0.9037 1 209 2 242
1.9882 -2.895 0.9024 1 209 2 242
1.981 -2.8923 0.9008 1 209 2 242
1.9756 -2.892 0.9002 1 209 2 242
1.969 -2.8902 0.8986 1 209 2 242
1.9634 -2.8898 0.8978 1 209 2 242
1.9572 -2.8886 0.8968 1 209 2 242
1.9508 -2.8868 0.8954 1 209 2 242
1.9445 -2.8853 0.8941 1 209 2 242
1.9388 -2.8846 0.8932 1 209 2 242
1.9329 -2.8836 0.8921 1 209 2 242
1.9267 -2.8823 0.8909 1 209 2 242
1.9208 -2.8812 0.8899 1 209 2 242
1.9152 -2.8809 0.8888 1 209 2 242
1.9086 -2.8786 0.8875 1 209 2 242
1.9026 -2.8777 0.8864 1 209 2 242
1.897 -2.8768 0.8854 1 209 2 242
1.891 -2.8755 0.8845 1 209 2 242
1.8846 -2.8737 0.8829 1 209 2 242
1.8782 -2.8718 0.8821 1 209 2 242
1.8733 -2.8721 0.881 1 209 2 242
1.8668 -2.87 0.8799 1 209 2 242
1.8613 -2.8696 0.8788 1 209 2 242
1.8553 -2.8682 0.8776 1 209 2 242
1.8437 -2.866 0.8754 1 209 2 242
1.8381 -2.8652 0.8748 1 209 2 242
1.8324 -2.8642 0.8738 1 209 2 242
1.8262 -2.8624 0.8721 1 209 2 242
1.8205 -2.8614 0.8714 1 209 2 242
1.8142 -2.8595 0.8702 1 209 2 242
1.8083 -2.8581 0.8704 1 209 2 242
1.8029 -2.8575 0.8681 1 209 2 242
1.7968 -2.8561 0.8672 1 209 2 242
1.7913 -2.8553 0.8662 1 209 2 242
1.7856 -2.8539 0.8647 1 209 2 242
1.7799 -2.8529 0.8642 1 209 2 242
1.7741 -2.8517 0.8626 1 209 2 242
1.7686 -2.8507 0.8623 1 209 2 242
1.763 -2.8495 0.861 1 209 2 242
1.7576 -2.8489 0.8611 1 209 2 242
1.7518 -2.8474 0.8591 1 209 2 242
1.7459 -2.8459 0.8576 1 209 2 242
1.7409 -2.8457 0.8573 1 209 2 242
1.7345 -2.8435 0.8558 1 209 2 242
1.7294 -2.843 0.855 1 209 2 242
1.7237 -2.8417 0.8539 1 209 2 242
1.7185 -2.8413 0.8539 1 209 2 242
1.7128 -2.8396 0.8522 1 209 2 242
1.7078 -2.8395 0.8512 1 209 2 242
1.7017 -2.8374 0.85 1 209 2 242
1.6967 -2.8371 0.8492 1 209 2 242
1.6911 -2.8358 0.848 1 209 2 242
2.221 -2.9395 0.9423 1 209 2 242
2.2148 -2.939 0.9408 1 209 2 242
2.2077 -2.9372 0.9396 1 209 2 242
2.2011 -2.9361 0.9382 1 209 2 242
2.1872 -2.9328 0.9353 1 209 2 242
2.1806 -2.9319 0.9344 1 209 2 242
2.174 -2.9304 0.9332 1 209 2 242
2.1675 -2.9294 0.9316 1 209 2 242
2.161 -2.9283 0.9309 1 209 2 242
2.1539 -2.9265 0.9291 1 209 2 242
2.1473 -2.9253 0.9282 1 209 2 242
2.1406 -2.9239 0.9267 1 209 2 242
2.1344 -2.9232 0.9254 1 209 2 242
2.1282 -2.9221 0.9243 1 209 2 242
2.1216 -2.9208 0.923 1 209 2 242
2.1151 -2.9196 0.922 1 209 2 242
2.1082 -2.9178 0.9204 1 209 2 242
2.1019 -2.9167 0.9193 1 209 2 242
2.0955 -2.9156 0.918 1 209 2 242
2.0889 -2.9142 0.9166 1 209 2 242
2.0822 -2.9125 0.9153 1 209 2 242
2.0763 -2.912 0.9143 1 209 2 242
2.0697 -2.9105 0.9135 1 209 2 242
2.0632 -2.9091 0.9116 1 209 2 242
2.0575 -2.9088 0.911 1 209 2 242
2.0506 -2.9068 0.9095 1 209 2 242
2.0444 -2.9057 0.9082 1 209 2 242
2.0375 -2.9038 0.9072 1 209 2 242
2.0314 -2.9029 0.9057 1 209 2 242
2.0249 -2.9014 0.9046 1 209 2 242
2.0188 -2.9002 0.9034 1 209 2 242
2.0121 -2.8984 0.902 1 209 2 242
2.0063 -2.8977 0.9011 1 209 2 242
1.9999 -2.8962 0.8995 1 209 2 242
1.9938 -2.8953 0.8991 1 209 2 242
1.9882 -2.8951 0.8977 1 209 2 242
1.9814 -2.8929 0.8963 1 209 2 242
1.9757 -2.8923 0.8956 1 209 2 242
1.969 -2.8902 0.8938 1 209 2 242
1.9625 -2.8885 0.8929 1 209 2 242
1.9573 -2.8887 0.8922 1 209 2 242
1.9505 -2.8864 0.8907 1 209 2 242
1.945 -2.886 0.8896 1 209 2 242
1.9386 -2.8843 0.8884 1 209 2 242
1.933 -2.8838 0.8877 1 209 2 242
1.927 -2.8827 0.8863 1 209 2 242
1.9206 -2.8809 0.8853 1 209 2 242
1.9146 -2.88 0.8839 1 209 2 242
1.9085 -2.8785 0.883 1 209 2 242
1.9029 -2.878 0.8819 1 209 2 242
1.8965 -2.876 0.8807 1 209 2 242
1.8904 -2.8746 0.8796 1 209 2 242
1.8847 -2.8739 0.8784 1 209 2 242
1.8791 -2.8732 0.8779 1 209 2 242
1.8727 -2.8713 0.8763 1 209 2 242
1.8671 -2.8706 0.8755 1 209 2 242
1.8616 -2.87 0.8744 1 209 2 242
1.8555 -2.8685 0.8733 1 209 2 242
1.849 -2.8665 0.8723 1 209 2 242
1.8431 -2.865 0.8707 1 209 2 242
1.8381 -2.8652 0.8704 1 209 2 242
1.8315 -2.8628 0.8688 1 209 2 242
1.8262 -2.8625 0.8677 1 209 2 242
1.8204 -2.8613 0.8669 1 209 2 242
1.8142 -2.8595 0.8655 1 209 2 242
1.8093 -2.8596 0.8662 1 209 2 242
1.8027 -2.8572 0.8635 1 209 2 242
1.7972 -2.8567 0.8628 1 209 2 242
1.7913 -2.8552 0.8617 1 209 2 242
1.7856 -2.8539 0.8603 1 209 2 242
1.7798 -2.8527 0.8596 1 209 2 242
1.7742 -2.8518 0.8582 1 209 2 242
1.7685 -2.8507 0.8577 1 209 2 242
1.7637 -2.8506 0.8568 1 209 2 242
1.7572 -2.8482 0.8565 1 209 2 242
1.752 -2.8477 0.8547 1 209 2 242
