1.7911 -2.8547 1.2186 0 118 231 221
1.7855 -2.8537 1.2167 0 118 231 221
1.7742 -2.8516 1.2139 0 118 231 221
1.7576 -2.8487 1.2114 0 118 231 221
1.6702 -2.9076 1.2121 0 118 231 221
1.6364 -3.0777 1.2612 0 118 231 221
1.6352 -3.0846 1.263 0 118 231 221
1.6338 -3.0914 1.2648 0 118 231 221
1.6297 -3.1121 1.2711 0 118 231 221
1.6213 -3.1535 1.2822 0 118 231 221
1.6182 -3.1671 1.2861 0 118 231 221
1.6115 -3.2035 1.2968 0 118 231 221
2.192 -2.9316 1.3188 0 118 231 221
2.1852 -2.9302 1.3165 0 118 231 221
2.1255 -2.9185 1.3003 0 118 231 221
1.9748 -2.8909 1.2611 0 118 231 221
1.9566 -2.8876 1.2564 0 118 231 221
1.9201 -2.8803 1.2469 0 118 231 221
1.908 -2.8779 1.2436 0 118 231 221
1.8902 -2.8745 1.2391 0 118 231 221
1.8665 -2.8697 1.2329 0 118 231 221
1.8606 -2.8685 1.2312 0 118 231 221
1.8488 -2.8661 1.2285 0 118 231 221
1.8434 -2.8655 1.2268 0 118 231 221
1.8372 -2.8639 1.2256 0 118 231 221
1.8313 -2.8626 1.2238 0 118 231 221
1.8255 -2.8615 1.2221 0 118 231 221
1.8142 -2.8593 1.2194 0 118 231 221
1.8027 -2.8571 1.2165 0 118 231 221
1.7855 -2.8537 1.212 0 118 231 221
1.774 -2.8514 1.209 0 118 231 221
1.7627 -2.8491 1.2065 0 118 231 221
1.7572 -2.848 1.2062 0 118 231 221
1.7236 -2.8416 1.1968 0 118 231 221
1.6716 -2.9018 1.2071 0 118 231 221
1.6689 -2.9141 1.2099 0 118 231 221
1.664 -2.9397 1.2162 0 118 231 221
1.6551 -2.9849 1.23 0 118 231 221
1.6537 -2.9912 1.2315 0 118 231 221
1.6471 -3.0239 1.2406 0 118 231 221
1.6283 -3.1189 1.2677 0 118 231 221
1.6265 -3.125 1.2695 0 118 231 221
1.6254 -3.1325 1.2715 0 118 231 221
2.2118 -2.935 1.3185 0 118 231 221
2.1785 -2.9289 1.3098 0 118 231 221
1.9627 -2.8887 1.2529 0 118 231 221
1.902 -2.8766 1.237 0 118 231 221
1.8845 -2.8734 1.2325 0 118 231 221
1.8728 -2.8713 1.2295 0 118 231 221
1.8665 -2.8697 1.2281 0 118 231 221
1.8556 -2.8686 1.2254 0 118 231 221
1.8494 -2.867 1.2242 0 118 231 221
1.8374 -2.8643 1.2208 0 118 231 221
1.8258 -2.8619 1.2173 0 118 231 221
1.8026 -2.857 1.2117 0 118 231 221
1.7968 -2.8559 1.2105 0 118 231 221
1.7801 -2.8531 1.2064 0 118 231 221
1.774 -2.8514 1.2043 0 118 231 221
1.7633 -2.8502 1.2022 0 118 231 221
1.7516 -2.847 1.1991 0 118 231 221
1.7294 -2.8429 1.1935 0 118 231 221
1.7128 -2.8397 1.1896 0 118 231 221
1.7069 -2.8381 1.1878 0 118 231 221
1.6679 -2.9209 1.2064 0 118 231 221
1.664 -2.9396 1.2113 0 118 231 221
1.6242 -3.1396 1.2685 0 118 231 221
2.1989 -2.933 1.3099 0 118 231 221
2.1191 -2.9173 1.2886 0 118 231 221
1.9326 -2.8831 1.2402 0 118 231 221
1.914 -2.879 1.2351 0 118 231 221
1.8961 -2.8756 1.2308 0 118 231 221
1.8902 -2.8745 1.2293 0 118 231 221
1.8843 -2.8731 1.2275 0 118 231 221
1.8665 -2.8698 1.2233 0 118 231 221
1.8549 -2.8675 1.2202 0 118 231 221
1.8489 -2.8663 1.2189 0 118 231 221
1.797 -2.8561 1.2056 0 118 231 221
1.7914 -2.8552 1.2044 0 118 231 221
1.7858 -2.8542 1.2027 0 118 231 221
1.7797 -2.8525 1.2014 0 118 231 221
1.7684 -2.8503 1.1987 0 118 231 221
1.7631 -2.8498 1.1973 0 118 231 221
1.7463 -2.8464 1.1928 0 118 231 221
1.7182 -2.8406 1.187 0 118 231 221
1.6679 -2.9209 1.2018 0 118 231 221
1.6603 -2.9591 1.2132 0 118 231 221
1.6498 -3.0109 1.2275 0 118 231 221
1.6486 -3.0178 1.2294 0 118 231 221
1.6157 -3.1821 1.2756 0 118 231 221
1.6071 -3.225 1.2877 0 118 231 221
1.594 -3.2915 1.3068 0 118 231 221
2.172 -2.9277 1.298 0 118 231 221
2.1061 -2.9148 1.2799 0 118 231 221
2.0246 -2.9008 1.2591 0 118 231 221
1.9322 -2.8826 1.2351 0 118 231 221
1.908 -2.8778 1.2288 0 118 231 221
1.8785 -2.8724 1.2219 0 118 231 221
1.8725 -2.8709 1.2197 0 118 231 221
1.8553 -2.868 1.2155 0 118 231 221
1.8489 -2.8662 1.2142 0 118 231 221
1.8431 -2.865 1.2121 0 118 231 221
1.8259 -2.862 1.2079 0 118 231 221
1.82 -2.8605 1.2066 0 118 231 221
1.8145 -2.8598 1.2053 0 118 231 221
1.8086 -2.8584 1.2051 0 118 231 221
1.8029 -2.8573 1.2022 0 118 231 221
1.7915 -2.8554 1.1997 0 118 231 221
1.7798 -2.8527 1.1967 0 118 231 221
1.774 -2.8514 1.1948 0 118 231 221
1.7685 -2.8504 1.194 0 118 231 221
1.7628 -2.8493 1.1924 0 118 231 221
1.7572 -2.8481 1.1921 0 118 231 221
1.7464 -2.8466 1.1881 0 118 231 221
1.7347 -2.8437 1.1853 0 118 231 221
1.7236 -2.8415 1.1826 0 118 231 221
1.669 -2.9142 1.1957 0 118 231 221
1.6433 -3.044 1.2319 0 118 231 221
1.6242 -3.1397 1.2585 0 118 231 221
1.6185 -3.1678 1.2662 0 118 231 221
2.2253 -2.9376 1.307 0 118 231 221
2.1853 -2.9304 1.2959 0 118 231 221
1.9384 -2.8839 1.2318 0 118 231 221
1.9022 -2.8769 1.2225 0 118 231 221
1.8783 -2.872 1.2168 0 118 231 221
1.8667 -2.87 1.2137 0 118 231 221
1.8608 -2.8688 1.2119 0 118 231 221
1.849 -2.8665 1.2094 0 118 231 221
1.8432 -2.8651 1.2074 0 118 231 221
1.8316 -2.8631 1.2049 0 118 231 221
1.8256 -2.8616 1.2029 0 118 231 221
1.8201 -2.8607 1.2018 0 118 231 221
1.8143 -2.8595 1.2003 0 118 231 221
1.8085 -2.8583 1.2004 0 118 231 221
1.7799 -2.8528 1.192 0 118 231 221
1.7743 -2.8519 1.1902 0 118 231 221
1.7686 -2.8506 1.1893 0 118 231 221
1.7631 -2.8497 1.1878 0 118 231 221
1.7517 -2.8471 1.1849 0 118 231 221
1.7462 -2.8462 1.1833 0 118 231 221
1.7347 -2.8437 1.1806 0 118 231 221
1.7236 -2.8415 1.178 0 118 231 221
1.7182 -2.8406 1.1776 0 118 231 221
1.6789 -2.8643 1.1766 0 118 231 221
1.6641 -2.9399 1.1971 0 118 231 221
1.6419 -3.0508 1.2289 0 118 231 221
1.6351 -3.0846 1.2382 0 118 231 221
1.6336 -3.0911 1.2399 0 118 231 221
1.5955 -3.2841 1.2947 0 118 231 221
1.594 -3.2915 1.2964 0 118 231 221
2.2056 -2.9343 1.2964 0 118 231 221
2.1922 -2.9318 1.2931 0 118 231 221
2.1786 -2.9291 1.2892 0 118 231 221
2.0932 -2.9123 1.2666 0 118 231 221
1.9689 -2.89 1.2346 0 118 231 221
1.9384 -2.8839 1.227 0 118 231 221
1.9324 -2.8828 1.2254 0 118 231 221
1.8846 -2.8736 1.2131 0 118 231 221
1.8668 -2.8701 1.2089 0 118 231 221
1.8607 -2.8686 1.207 0 118 231 221
1.8555 -2.8683 1.2061 0 118 231 221
1.8491 -2.8666 1.2047 0 118 231 221
1.8434 -2.8655 1.2027 0 118 231 221
1.8376 -2.8645 1.2017 0 118 231 221
1.8318 -2.8635 1.2002 0 118 231 221
1.8261 -2.8623 1.1984 0 118 231 221
1.8203 -2.861 1.1972 0 118 231 221
1.7974 -2.8568 1.1917 0 118 231 221
1.7913 -2.8551 1.1901 0 118 231 221
1.7857 -2.854 1.1883 0 118 231 221
1.7798 -2.8527 1.1872 0 118 231 221
1.7741 -2.8515 1.1853 0 118 231 221
1.7683 -2.8503 1.1844 0 118 231 221
1.763 -2.8496 1.183 0 118 231 221
1.7518 -2.8473 1.1804 0 118 231 221
1.7462 -2.8462 1.1785 0 118 231 221
1.7403 -2.8448 1.1774 0 118 231 221
1.7126 -2.8395 1.1707 0 118 231 221
1.6538 -2.9914 1.2074 0 118 231 221
1.6512 -3.0046 1.211 0 118 231 221
1.6364 -3.0777 1.2316 0 118 231 221
1.6187 -3.1681 1.2563 0 118 231 221
1.604 -3.2393 1.2762 0 118 231 221
2.2192 -2.9371 1.295 0 118 231 221
2.2123 -2.9358 1.2929 0 118 231 221
2.1852 -2.9303 1.2855 0 118 231 221
2.1783 -2.9287 1.2838 0 118 231 221
1.9505 -2.8863 1.2252 0 118 231 221
1.9262 -2.8815 1.2188 0 118 231 221
1.8848 -2.8739 1.2084 0 118 231 221
1.8727 -2.8712 1.2053 0 118 231 221
1.8607 -2.8686 1.2023 0 118 231 221
1.855 -2.8676 1.2009 0 118 231 221
1.8434 -2.8654 1.198 0 118 231 221
1.8373 -2.8641 1.1968 0 118 231 221
1.8317 -2.8632 1.1953 0 118 231 221
1.8203 -2.861 1.1924 0 118 231 221
1.8147 -2.8601 1.191 0 118 231 221
1.7969 -2.856 1.1866 0 118 231 221
1.7801 -2.8531 1.1826 0 118 231 221
1.7742 -2.8517 1.1806 0 118 231 221
1.7628 -2.8493 1.1781 0 118 231 221
1.7573 -2.8482 1.1779 0 118 231 221
1.7461 -2.8461 1.1738 0 118 231 221
1.7403 -2.8448 1.1728 0 118 231 221
1.7236 -2.8416 1.1687 0 118 231 221
1.7125 -2.8393 1.1661 0 118 231 221
1.6029 -3.2473 1.2742 0 118 231 221
1.6012 -3.2542 1.2756 0 118 231 221
2.226 -2.9385 1.2917 0 118 231 221
2.2056 -2.9343 1.286 0 118 231 221
2.1451 -2.9223 1.2702 0 118 231 221
1.9689 -2.89 1.2247 0 118 231 221
1.9505 -2.8863 1.2203 0 118 231 221
1.9384 -2.884 1.2172 0 118 231 221
1.9264 -2.8818 1.214 0 118 231 221
1.9146 -2.88 1.2111 0 118 231 221
1.8963 -2.8756 1.2064 0 118 231 221
1.8784 -2.8722 1.2024 0 118 231 221
1.8733 -2.8721 1.2008 0 118 231 221
1.8665 -2.8697 1.1991 0 118 231 221
1.8318 -2.8634 1.1906 0 118 231 221
1.7857 -2.8539 1.1788 0 118 231 221
1.7799 -2.8529 1.1778 0 118 231 221
1.7517 -2.8471 1.1709 0 118 231 221
1.7404 -2.845 1.1682 0 118 231 221
1.7348 -2.8438 1.1665 0 118 231 221
1.7292 -2.8427 1.1652 0 118 231 221
1.7183 -2.8408 1.1635 0 118 231 221
1.7072 -2.8386 1.1599 0 118 231 221
1.6087 -3.2182 1.2605 0 118 231 221
2.226 -2.9385 1.2865 0 118 231 221
2.1988 -2.933 1.2789 0 118 231 221
2.1919 -2.9314 1.2773 0 118 231 221
2.172 -2.9277 1.2721 0 118 231 221
1.9384 -2.884 1.2122 0 118 231 221
1.9264 -2.8818 1.2091 0 118 231 221
1.9083 -2.8783 1.2047 0 118 231 221
1.8966 -2.8761 1.2018 0 118 231 221
1.8783 -2.8721 1.1974 0 118 231 221
1.8666 -2.8699 1.1943 0 118 231 221
1.8608 -2.8689 1.1928 0 118 231 221
1.8551 -2.8677 1.1914 0 118 231 221
1.826 -2.862 1.184 0 118 231 221
1.8203 -2.861 1.1828 0 118 231 221
1.8085 -2.8583 1.1813 0 118 231 221
1.8033 -2.858 1.1788 0 118 231 221
1.7972 -2.8565 1.1773 0 118 231 221
1.7802 -2.8532 1.1732 0 118 231 221
1.7631 -2.8498 1.1689 0 118 231 221
1.6668 -2.9272 1.1746 0 118 231 221
2.2259 -2.9383 1.2813 0 118 231 221
2.2125 -2.9359 1.2774 0 118 231 221
2.1785 -2.9291 1.2686 0 118 231 221
2.025 -2.9013 1.2294 0 118 231 221
1.969 -2.89 1.2149 0 118 231 221
1.9263 -2.8816 1.2042 0 118 231 221
1.9202 -2.8805 1.2029 0 118 231 221
1.9142 -2.8793 1.201 0 118 231 221
1.9023 -2.877 1.1982 0 118 231 221
1.8964 -2.8759 1.1968 0 118 231 221
1.8902 -2.8745 1.1953 0 118 231 221
1.8786 -2.8725 1.1928 0 118 231 221
1.8728 -2.8713 1.1908 0 118 231 221
1.8669 -2.8704 1.1897 0 118 231 221
1.8609 -2.8689 1.1879 0 118 231 221
1.8553 -2.868 1.1867 0 118 231 221
1.8489 -2.8663 1.1853 0 118 231 221
1.844 -2.8663 1.1838 0 118 231 221
1.8375 -2.8643 1.1825 0 118 231 221
1.8259 -2.8618 1.1791 0 118 231 221
1.8085 -2.8583 1.1765 0 118 231 221
1.8038 -2.8589 1.1742 0 118 231 221
1.797 -2.8563 1.1725 0 118 231 221
1.7686 -2.8507 1.1658 0 118 231 221
1.7628 -2.8494 1.164 0 118 231 221
1.7573 -2.8482 1.1639 0 118 231 221
1.7237 -2.8417 1.1545 0 118 231 221
1.7074 -2.8389 1.1506 0 118 231 221
2.2256 -2.938 1.2759 0 118 231 221
2.1919 -2.9314 1.267 0 118 231 221
2.1651 -2.9264 1.2597 0 118 231 221
2.1521 -2.924 1.2564 0 118 231 221
2.1259 -2.9189 1.2497 0 118 231 221
2.0249 -2.9012 1.2244 0 118 231 221
2.0062 -2.8975 1.2196 0 118 231 221
1.9752 -2.8916 1.2119 0 118 231 221
1.9567 -2.8879 1.2072 0 118 231 221
1.9203 -2.8807 1.1981 0 118 231 221
1.9083 -2.8783 1.195 0 118 231 221
1.8964 -2.8758 1.192 0 118 231 221
1.8902 -2.8745 1.1905 0 118 231 221
1.8786 -2.8725 1.1879 0 118 231 221
1.8729 -2.8714 1.1862 0 118 231 221
1.867 -2.8706 1.1849 0 118 231 221
1.8437 -2.8659 1.1789 0 118 231 221
1.8373 -2.8641 1.1776 0 118 231 221
1.8317 -2.8633 1.1762 0 118 231 221
1.8262 -2.8623 1.1745 0 118 231 221
1.8143 -2.8595 1.1716 0 118 231 221
1.8085 -2.8584 1.1718 0 118 231 221
1.7857 -2.8539 1.1646 0 118 231 221
1.7685 -2.8506 1.1609 0 118 231 221
1.7632 -2.8499 1.1594 0 118 231 221
1.6742 -2.8896 1.1555 0 118 231 221
2.2052 -2.9338 1.2651 0 118 231 221
2.1919 -2.9315 1.262 0 118 231 221
1.963 -2.889 1.2037 0 118 231 221
1.9203 -2.8807 1.1932 0 118 231 221
1.9142 -2.8793 1.1913 0 118 231 221
1.8966 -2.8761 1.1873 0 118 231 221
1.8905 -2.8749 1.1858 0 118 231 221
1.8727 -2.8711 1.1811 0 118 231 221
1.8666 -2.8699 1.18 0 118 231 221
1.8608 -2.8688 1.1782 0 118 231 221
1.8551 -2.8678 1.177 0 118 231 221
1.849 -2.8664 1.1758 0 118 231 221
1.8433 -2.8653 1.1739 0 118 231 221
1.8378 -2.8648 1.1731 0 118 231 221
1.8317 -2.8632 1.1715 0 118 231 221
1.8259 -2.8619 1.1696 0 118 231 221
1.8203 -2.8611 1.1686 0 118 231 221
1.809 -2.8591 1.1673 0 118 231 221
1.7973 -2.8567 1.1632 0 118 231 221
1.7799 -2.8529 1.1589 0 118 231 221
1.7747 -2.8525 1.1573 0 118 231 221
1.7517 -2.8472 1.1521 0 118 231 221
2.199 -2.9332 1.2584 0 118 231 221
2.1923 -2.932 1.2569 0 118 231 221
1.9812 -2.8925 1.2032 0 118 231 221
1.9446 -2.8853 1.1941 0 118 231 221
1.9385 -2.8841 1.1928 0 118 231 221
1.9324 -2.8829 1.1912 0 118 231 221
1.9202 -2.8805 1.1883 0 118 231 221
1.9083 -2.8783 1.1853 0 118 231 221
1.9024 -2.8773 1.1838 0 118 231 221
1.8963 -2.8757 1.1822 0 118 231 221
1.8845 -2.8734 1.1793 0 118 231 221
1.8727 -2.8712 1.1765 0 118 231 221
1.8609 -2.869 1.1736 0 118 231 221
1.8551 -2.8677 1.1721 0 118 231 221
1.8494 -2.8671 1.1713 0 118 231 221
1.8323 -2.8641 1.167 0 118 231 221
1.8265 -2.8628 1.1652 0 118 231 221
1.8206 -2.8615 1.1639 0 118 231 221
1.8144 -2.8597 1.1623 0 118 231 221
1.8086 -2.8586 1.1623 0 118 231 221
1.7859 -2.8543 1.1553 0 118 231 221
1.7801 -2.8532 1.1542 0 118 231 221
1.7744 -2.8521 1.1524 0 118 231 221
1.7687 -2.8508 1.1516 0 118 231 221
1.7574 -2.8483 1.1498 0 118 231 221
1.7518 -2.8473 1.1473 0 118 231 221
1.7348 -2.8439 1.1431 0 118 231 221
1.6729 -2.8956 1.1472 0 118 231 221
1.6705 -2.9082 1.1508 0 118 231 221
1.6654 -2.9336 1.1584 0 118 231 221
1.6615 -2.9526 1.1628 0 118 231 221
1.6257 -3.1331 1.212 0 118 231 221
2.1985 -2.9326 1.2528 0 118 231 221
2.1853 -2.9304 1.2495 0 118 231 221
2.1721 -2.9279 1.2467 0 118 231 221
1.9385 -2.8841 1.1879 0 118 231 221
1.9143 -2.8794 1.1818 0 118 231 221
1.9083 -2.8783 1.1805 0 118 231 221
1.9023 -2.8771 1.1789 0 118 231 221
1.8965 -2.8759 1.1776 0 118 231 221
1.8905 -2.8749 1.1761 0 118 231 221
1.8846 -2.8735 1.1744 0 118 231 221
1.8785 -2.8724 1.1734 0 118 231 221
1.8608 -2.8689 1.1686 0 118 231 221
1.8552 -2.8678 1.1674 0 118 231 221
1.8491 -2.8666 1.1663 0 118 231 221
1.8437 -2.8659 1.1646 0 118 231 221
1.8375 -2.8644 1.1634 0 118 231 221
1.832 -2.8636 1.1621 0 118 231 221
1.8204 -2.8612 1.1591 0 118 231 221
1.809 -2.8591 1.1578 0 118 231 221
1.8032 -2.8579 1.155 0 118 231 221
1.7973 -2.8566 1.1536 0 118 231 221
1.7912 -2.855 1.1521 0 118 231 221
1.7858 -2.854 1.1504 0 118 231 221
1.7802 -2.8533 1.1496 0 118 231 221
1.7744 -2.8519 1.1477 0 118 231 221
1.7293 -2.8429 1.1372 0 118 231 221
1.7187 -2.8414 1.1358 0 118 231 221
2.2122 -2.9356 1.2515 0 118 231 221
2.1924 -2.9321 1.2467 0 118 231 221
2.1855 -2.9305 1.2445 0 118 231 221
2.0248 -2.9011 1.2045 0 118 231 221
1.969 -2.8901 1.1904 0 118 231 221
1.9082 -2.8781 1.1755 0 118 231 221
1.9025 -2.8774 1.1742 0 118 231 221
1.8906 -2.8751 1.1715 0 118 231 221
1.8785 -2.8724 1.1687 0 118 231 221
1.8726 -2.8711 1.1668 0 118 231 221
1.8671 -2.8707 1.1658 0 118 231 221
1.8608 -2.8688 1.1639 0 118 231 221
1.8556 -2.8686 1.1629 0 118 231 221
1.8494 -2.867 1.1616 0 118 231 221
1.8437 -2.8659 1.1598 0 118 231 221
1.8316 -2.8631 1.157 0 118 231 221
1.826 -2.862 1.1553 0 118 231 221
1.8205 -2.8613 1.1544 0 118 231 221
1.8029 -2.8574 1.1499 0 118 231 221
1.7975 -2.8571 1.1491 0 118 231 221
1.7915 -2.8555 1.1475 0 118 231 221
1.7799 -2.8528 1.1447 0 118 231 221
1.7744 -2.852 1.143 0 118 231 221
1.724 -2.8423 1.1315 0 118 231 221
2.2258 -2.9382 1.2502 0 118 231 221
2.2193 -2.9373 1.2486 0 118 231 221
2.2124 -2.9358 1.2464 0 118 231 221
2.2056 -2.9343 1.2447 0 118 231 221
2.063 -2.9087 1.2088 0 118 231 221
1.9937 -2.8952 1.1921 0 118 231 221
1.9814 -2.8928 1.1886 0 118 231 221
1.9572 -2.8885 1.183 0 118 231 221
1.933 -2.8838 1.177 0 118 231 221
1.9269 -2.8825 1.1753 0 118 231 221
1.9204 -2.8807 1.1738 0 118 231 221
1.9143 -2.8795 1.1721 0 118 231 221
1.9083 -2.8783 1.1708 0 118 231 221
1.9026 -2.8775 1.1694 0 118 231 221
1.8907 -2.8753 1.1666 0 118 231 221
1.8848 -2.8739 1.1649 0 118 231 221
1.8787 -2.8727 1.1639 0 118 231 221
1.8609 -2.869 1.1591 0 118 231 221
1.8551 -2.8678 1.1578 0 118 231 221
1.8492 -2.8667 1.1568 0 118 231 221
1.8436 -2.8658 1.155 0 118 231 221
1.8374 -2.8642 1.1538 0 118 231 221
1.8317 -2.8631 1.1523 0 118 231 221
1.8205 -2.8614 1.1496 0 118 231 221
1.8147 -2.8602 1.1482 0 118 231 221
1.8087 -2.8587 1.1482 0 118 231 221
1.7971 -2.8564 1.1441 0 118 231 221
1.7915 -2.8554 1.1428 0 118 231 221
1.786 -2.8545 1.1412 0 118 231 221
1.7686 -2.8507 1.1375 0 118 231 221
1.687 -2.8372 1.1188 0 118 231 221
1.6603 -2.9592 1.151 0 118 231 221
1.6592 -2.9659 1.1529 0 118 231 221
2.2257 -2.9381 1.245 0 118 231 221
2.2193 -2.9374 1.2435 0 118 231 221
2.2057 -2.9345 1.2398 0 118 231 221
2.1456 -2.9229 1.2247 0 118 231 221
2.0063 -2.8977 1.19 0 118 231 221
1.963 -2.889 1.1794 0 118 231 221
1.9566 -2.8877 1.1778 0 118 231 221
1.9386 -2.8843 1.1734 0 118 231 221
1.9267 -2.8822 1.1704 0 118 231 221
1.9084 -2.8784 1.166 0 118 231 221
1.891 -2.8756 1.1621 0 118 231 221
1.8846 -2.8736 1.1601 0 118 231 221
1.8729 -2.8715 1.1573 0 118 231 221
1.8609 -2.8691 1.1544 0 118 231 221
1.849 -2.8665 1.1519 0 118 231 221
1.8434 -2.8654 1.1499 0 118 231 221
1.8377 -2.8647 1.1492 0 118 231 221
1.8322 -2.8638 1.1478 0 118 231 221
1.8201 -2.8608 1.1446 0 118 231 221
1.8145 -2.8598 1.1433 0 118 231 221
1.8092 -2.8594 1.1437 0 118 231 221
1.8029 -2.8575 1.1405 0 118 231 221
1.7974 -2.8569 1.1396 0 118 231 221
1.7859 -2.8542 1.1364 0 118 231 221
1.78 -2.853 1.1354 0 118 231 221
1.7693 -2.8517 1.1332 0 118 231 221
1.7575 -2.8486 1.1311 0 118 231 221
1.7518 -2.8473 1.1287 0 118 231 221
1.713 -2.8401 1.1198 0 118 231 221
1.6681 -2.9212 1.1356 0 118 231 221
1.6668 -2.9272 1.1368 0 118 231 221
1.6605 -2.9594 1.1464 0 118 231 221
1.6487 -3.018 1.1617 0 118 231 221
2.2258 -2.9382 1.2399 0 118 231 221
2.1992 -2.9335 1.2328 0 118 231 221
1.9877 -2.8943 1.1802 0 118 231 221
1.9568 -2.888 1.173 0 118 231 221
1.9447 -2.8855 1.1698 0 118 231 221
1.9264 -2.8818 1.1653 0 118 231 221
1.8905 -2.8749 1.1568 0 118 231 221
1.8729 -2.8715 1.1524 0 118 231 221
1.867 -2.8705 1.1514 0 118 231 221
1.8611 -2.8693 1.1498 0 118 231 221
1.8377 -2.8646 1.1444 0 118 231 221
1.8206 -2.8616 1.1402 0 118 231 221
1.8148 -2.8604 1.1388 0 118 231 221
1.8089 -2.859 1.1388 0 118 231 221
1.7971 -2.8565 1.1347 0 118 231 221
1.7913 -2.8552 1.1333 0 118 231 221
1.763 -2.8497 1.1265 0 118 231 221
1.6618 -2.9531 1.1393 0 118 231 221
1.6603 -2.9592 1.1416 0 118 231 221
2.2261 -2.9386 1.2349 0 118 231 221
2.206 -2.9349 1.2297 0 118 231 221
2.1858 -2.9309 1.2243 0 118 231 221
2.1723 -2.9281 1.2212 0 118 231 221
2.0186 -2.9 1.183 0 118 231 221
2.0126 -2.8992 1.1818 0 118 231 221
1.9751 -2.8915 1.1727 0 118 231 221
1.9692 -2.8905 1.1709 0 118 231 221
1.9512 -2.8873 1.1669 0 118 231 221
1.9447 -2.8855 1.1649 0 118 231 221
1.9325 -2.883 1.1621 0 118 231 221
1.9203 -2.8807 1.1593 0 118 231 221
1.9024 -2.8772 1.1549 0 118 231 221
1.8966 -2.8762 1.1535 0 118 231 221
1.8847 -2.8738 1.1505 0 118 231 221
1.8789 -2.873 1.1497 0 118 231 221
1.8728 -2.8714 1.1477 0 118 231 221
1.8667 -2.8701 1.1463 0 118 231 221
1.8437 -2.8659 1.1408 0 118 231 221
1.8318 -2.8632 1.1381 0 118 231 221
1.8203 -2.861 1.1353 0 118 231 221
1.8146 -2.86 1.1339 0 118 231 221
1.8089 -2.8589 1.134 0 118 231 221
1.7686 -2.8507 1.1235 0 118 231 221
1.7349 -2.8441 1.1152 0 118 231 221
1.7073 -2.8387 1.1088 0 118 231 221
1.674 -2.8892 1.118 0 118 231 221
1.5569 -3.4901 1.2794 0 118 231 221
2.199 -2.9332 1.2224 0 118 231 221
2.0125 -2.899 1.1769 0 118 231 221
1.963 -2.8891 1.1647 0 118 231 221
1.9387 -2.8844 1.1589 0 118 231 221
1.9084 -2.8784 1.1515 0 118 231 221
1.8968 -2.8765 1.1488 0 118 231 221
1.8787 -2.8727 1.1447 0 118 231 221
1.8731 -2.8717 1.1429 0 118 231 221
1.8608 -2.8689 1.14 0 118 231 221
1.8318 -2.8632 1.1333 0 118 231 221
1.8265 -2.8629 1.1319 0 118 231 221
1.8146 -2.86 1.1292 0 118 231 221
1.8032 -2.8578 1.1266 0 118 231 221
1.7971 -2.8565 1.1252 0 118 231 221
1.7859 -2.8543 1.1223 0 118 231 221
1.7629 -2.8496 1.1171 0 118 231 221
1.7575 -2.8486 1.1171 0 118 231 221
1.6818 -2.8529 1.1039 0 118 231 221
1.6274 -3.1364 1.1786 0 118 231 221
2.219 -2.9369 1.2227 0 118 231 221
2.1195 -2.9178 1.1977 0 118 231 221
2.0001 -2.8965 1.1686 0 118 231 221
1.9567 -2.8879 1.1584 0 118 231 221
1.9388 -2.8846 1.1541 0 118 231 221
1.9327 -2.8833 1.1526 0 118 231 221
1.9267 -2.8822 1.151 0 118 231 221
1.9206 -2.8811 1.1498 0 118 231 221
1.9083 -2.8783 1.1467 0 118 231 221
1.8788 -2.8728 1.1401 0 118 231 221
1.8611 -2.8691 1.1354 0 118 231 221
1.8554 -2.8682 1.1341 0 118 231 221
1.8436 -2.8657 1.131 0 118 231 221
1.8378 -2.8647 1.1302 0 118 231 221
1.832 -2.8636 1.1287 0 118 231 221
1.8087 -2.8587 1.1245 0 118 231 221
1.8031 -2.8578 1.1217 0 118 231 221
1.7575 -2.8485 1.1124 0 118 231 221
1.9939 -2.8955 1.1628 0 118 231 221
1.9453 -2.8863 1.1507 0 118 231 221
1.9386 -2.8843 1.1492 0 118 231 221
1.9325 -2.8831 1.1477 0 118 231 221
1.9204 -2.8808 1.1449 0 118 231 221
1.9144 -2.8797 1.1432 0 118 231 221
1.9083 -2.8783 1.1418 0 118 231 221
1.8966 -2.8762 1.1391 0 118 231 221
1.8908 -2.8754 1.138 0 118 231 221
1.8847 -2.8737 1.1361 0 118 231 221
1.8614 -2.8695 1.1308 0 118 231 221
1.8552 -2.868 1.1292 0 118 231 221
1.832 -2.8635 1.1241 0 118 231 221
1.8262 -2.8623 1.1222 0 118 231 221
1.8204 -2.8611 1.1212 0 118 231 221
1.8144 -2.8598 1.1197 0 118 231 221
1.8088 -2.8589 1.1199 0 118 231 221
1.8032 -2.858 1.1172 0 118 231 221
1.7915 -2.8555 1.1147 0 118 231 221
1.7803 -2.8536 1.1121 0 118 231 221
1.7691 -2.8515 1.1097 0 118 231 221
1.7634 -2.8502 1.108 0 118 231 221
1.7576 -2.8488 1.1078 0 118 231 221
1.7018 -2.8376 1.0939 0 118 231 221
1.6655 -2.9338 1.116 0 118 231 221
2.2125 -2.9361 1.2105 0 118 231 221
2.1324 -2.9204 1.1907 0 118 231 221
2.0125 -2.899 1.1621 0 118 231 221
1.9755 -2.8921 1.1534 0 118 231 221
1.957 -2.8882 1.1488 0 118 231 221
1.9509 -2.8868 1.1473 0 118 231 221
1.9448 -2.8857 1.1456 0 118 231 221
1.9205 -2.8809 1.1401 0 118 231 221
1.9147 -2.8801 1.1384 0 118 231 221
1.9084 -2.8784 1.1371 0 118 231 221
1.9025 -2.8773 1.1357 0 118 231 221
1.8667 -2.8701 1.1274 0 118 231 221
1.8614 -2.8696 1.126 0 118 231 221
1.8553 -2.8681 1.1245 0 118 231 221
1.8493 -2.8668 1.1235 0 118 231 221
1.8378 -2.8647 1.1207 0 118 231 221
1.8319 -2.8634 1.1192 0 118 231 221
1.8262 -2.8624 1.1175 0 118 231 221
1.8203 -2.8611 1.1164 0 118 231 221
1.8148 -2.8604 1.1152 0 118 231 221
1.7973 -2.8567 1.1112 0 118 231 221
1.7631 -2.8497 1.1032 0 118 231 221
1.752 -2.8476 1.1008 0 118 231 221
1.6604 -2.9592 1.118 0 118 231 221
1.6591 -2.9658 1.1196 0 118 231 221
1.6514 -3.0049 1.1294 0 118 231 221
2.0312 -2.9026 1.1615 0 118 231 221
1.9692 -2.8904 1.1465 0 118 231 221
1.9508 -2.8868 1.1424 0 118 231 221
1.9329 -2.8836 1.1382 0 118 231 221
1.9266 -2.8821 1.1364 0 118 231 221
1.9025 -2.8773 1.1308 0 118 231 221
1.8909 -2.8755 1.1284 0 118 231 221
1.8847 -2.8737 1.1266 0 118 231 221
1.8676 -2.8714 1.1231 0 118 231 221
1.861 -2.869 1.121 0 118 231 221
1.8496 -2.8673 1.1189 0 118 231 221
1.8436 -2.8658 1.1169 0 118 231 221
1.8381 -2.8652 1.1163 0 118 231 221
1.8261 -2.8623 1.1128 0 118 231 221
1.7974 -2.8569 1.1066 0 118 231 221
1.7916 -2.8556 1.1053 0 118 231 221
1.7744 -2.852 1.1008 0 118 231 221
1.752 -2.8476 1.0961 0 118 231 221
2.1991 -2.9334 1.197 0 118 231 221
2.1925 -2.9322 1.1958 0 118 231 221
1.9448 -2.8856 1.136 0 118 231 221
1.9267 -2.8821 1.1317 0 118 231 221
1.9084 -2.8784 1.1275 0 118 231 221
1.9024 -2.8773 1.1261 0 118 231 221
1.8728 -2.8714 1.119 0 118 231 221
1.8612 -2.8693 1.1164 0 118 231 221
1.8146 -2.86 1.1056 0 118 231 221
1.7974 -2.8568 1.102 0 118 231 221
1.994 -2.8956 1.1432 0 118 231 221
1.9881 -2.8948 1.1414 0 118 231 221
1.9752 -2.8917 1.1386 0 118 231 221
1.9205 -2.881 1.1257 0 118 231 221
1.8788 -2.8729 1.1162 0 118 231 221
1.873 -2.8716 1.1144 0 118 231 221
1.8556 -2.8685 1.1104 0 118 231 221
1.8493 -2.8669 1.1092 0 118 231 221
1.8435 -2.8656 1.1074 0 118 231 221
1.832 -2.8635 1.1052 0 118 231 221
1.8262 -2.8624 1.1034 0 118 231 221
1.8203 -2.8611 1.1024 0 118 231 221
1.8147 -2.8602 1.101 0 118 231 221
1.8091 -2.8594 1.1012 0 118 231 221
1.7975 -2.857 1.0973 0 118 231 221
1.7859 -2.8543 1.0942 0 118 231 221
2.0633 -2.9091 1.1543 0 118 231 221
2.0187 -2.9002 1.1438 0 118 231 221
1.9937 -2.8953 1.1383 0 118 231 221
1.9508 -2.8868 1.1279 0 118 231 221
1.9265 -2.882 1.122 0 118 231 221
1.8905 -2.8749 1.1137 0 118 231 221
1.8848 -2.8739 1.1123 0 118 231 221
1.8611 -2.8691 1.1068 0 118 231 221
1.8556 -2.8685 1.1057 0 118 231 221
1.8379 -2.8648 1.1018 0 118 231 221
1.8321 -2.8636 1.1005 0 118 231 221
1.8262 -2.8624 1.0987 0 118 231 221
1.8145 -2.8599 1.0962 0 118 231 221
1.7972 -2.8565 1.0925 0 118 231 221
1.7859 -2.8543 1.0895 0 118 231 221
1.7465 -2.8468 1.0807 0 118 231 221
2.0003 -2.8967 1.1344 0 118 231 221
1.9569 -2.8881 1.1246 0 118 231 221
1.9389 -2.8848 1.1204 0 118 231 221
1.933 -2.8837 1.119 0 118 231 221
1.9267 -2.8822 1.1172 0 118 231 221
1.9146 -2.8799 1.1145 0 118 231 221
1.8967 -2.8763 1.1104 0 118 231 221
1.8849 -2.8741 1.1076 0 118 231 221
1.8788 -2.8727 1.1067 0 118 231 221
1.8729 -2.8715 1.1048 0 118 231 221
1.8669 -2.8704 1.1037 0 118 231 221
1.8553 -2.868 1.1008 0 118 231 221
1.8496 -2.8674 1.1 0 118 231 221
1.8262 -2.8623 1.0939 0 118 231 221
1.809 -2.8591 1.0917 0 118 231 221
1.8033 -2.858 1.089 0 118 231 221
1.7973 -2.8568 1.0878 0 118 231 221
1.7746 -2.8524 1.0822 0 118 231 221
1.7406 -2.8454 1.0752 0 118 231 221
2.1459 -2.9233 1.1644 0 118 231 221
2.0191 -2.9007 1.1342 0 118 231 221
1.9511 -2.8871 1.1183 0 118 231 221
1.9269 -2.8825 1.1125 0 118 231 221
1.9149 -2.8804 1.1098 0 118 231 221
1.9027 -2.8776 1.1071 0 118 231 221
1.8968 -2.8765 1.1057 0 118 231 221
1.8905 -2.875 1.1043 0 118 231 221
1.8789 -2.8727 1.1019 0 118 231 221
1.8614 -2.8695 1.0975 0 118 231 221
1.8555 -2.8685 1.0962 0 118 231 221
1.8262 -2.8624 1.0892 0 118 231 221
1.8204 -2.8613 1.0882 0 118 231 221
1.8149 -2.8605 1.087 0 118 231 221
1.8032 -2.858 1.0843 0 118 231 221
1.7915 -2.8554 1.0817 0 118 231 221
1.7862 -2.8547 1.0803 0 118 231 221
2.2265 -2.9391 1.1787 0 118 231 221
2.0314 -2.9028 1.132 0 118 231 221
2.0003 -2.8967 1.1247 0 118 231 221
1.9571 -2.8885 1.1151 0 118 231 221
1.9448 -2.8857 1.1118 0 118 231 221
1.9148 -2.8802 1.105 0 118 231 221
1.9085 -2.8786 1.1036 0 118 231 221
1.8908 -2.8754 1.0997 0 118 231 221
1.8614 -2.8697 1.0928 0 118 231 221
1.8555 -2.8683 1.0914 0 118 231 221
1.8494 -2.867 1.0904 0 118 231 221
1.8438 -2.866 1.0887 0 118 231 221
1.8262 -2.8624 1.0847 0 118 231 221
1.809 -2.8592 1.0824 0 118 231 221
1.7801 -2.8532 1.0746 0 118 231 221
1.7746 -2.8524 1.073 0 118 231 221
1.7689 -2.8511 1.0723 0 118 231 221
1.6581 -2.9728 1.0873 0 118 231 221
2.0635 -2.9094 1.1348 0 118 231 221
2.0317 -2.9033 1.1273 0 118 231 221
2.0129 -2.8996 1.1231 0 118 231 221
1.9877 -2.8943 1.1169 0 118 231 221
1.957 -2.8883 1.1101 0 118 231 221
1.951 -2.8871 1.1087 0 118 231 221
1.8853 -2.8746 1.0935 0 118 231 221
1.8495 -2.8673 1.0859 0 118 231 221
1.832 -2.8635 1.0816 0 118 231 221
1.8262 -2.8624 1.0798 0 118 231 221
1.8204 -2.8612 1.0787 0 118 231 221
1.8032 -2.8578 1.0749 0 118 231 221
1.7973 -2.8567 1.0738 0 118 231 221
1.7747 -2.8526 1.0685 0 118 231 221
1.6656 -2.934 1.0741 0 118 231 221
2.0252 -2.9017 1.1211 0 118 231 221
1.9695 -2.8909 1.1079 0 118 231 221
1.9569 -2.8882 1.1053 0 118 231 221
1.9205 -2.881 1.097 0 118 231 221
1.9146 -2.88 1.0953 0 118 231 221
1.909 -2.8794 1.0944 0 118 231 221
1.9028 -2.8779 1.0928 0 118 231 221
1.8967 -2.8763 1.0913 0 118 231 221
1.8851 -2.8743 1.0887 0 118 231 221
1.8732 -2.8719 1.086 0 118 231 221
1.8675 -2.8712 1.085 0 118 231 221
1.8612 -2.8693 1.0832 0 118 231 221
1.8497 -2.8675 1.0811 0 118 231 221
1.8381 -2.8652 1.0784 0 118 231 221
1.8151 -2.8608 1.0731 0 118 231 221
2.0127 -2.8993 1.1134 0 118 231 221
2.0068 -2.8983 1.1119 0 118 231 221
1.9821 -2.8939 1.1061 0 118 231 221
1.9754 -2.8919 1.1048 0 118 231 221
1.9637 -2.8901 1.1021 0 118 231 221
1.9456 -2.8869 1.0979 0 118 231 221
1.927 -2.8826 1.0934 0 118 231 221
1.9205 -2.881 1.0921 0 118 231 221
1.9088 -2.8791 1.0894 0 118 231 221
1.9025 -2.8775 1.0879 0 118 231 221
1.8968 -2.8764 1.0866 0 118 231 221
1.8907 -2.8752 1.0854 0 118 231 221
1.8731 -2.8718 1.0812 0 118 231 221
1.867 -2.8706 1.0801 0 118 231 221
1.8613 -2.8694 1.0785 0 118 231 221
1.8553 -2.8682 1.0772 0 118 231 221
1.8496 -2.8673 1.0764 0 118 231 221
1.8441 -2.8666 1.0747 0 118 231 221
1.8379 -2.8649 1.0736 0 118 231 221
1.8323 -2.864 1.0724 0 118 231 221
1.7916 -2.8557 1.0633 0 118 231 221
1.7861 -2.8546 1.0616 0 118 231 221
1.7521 -2.8479 1.0545 0 118 231 221
1.6744 -2.8898 1.0533 0 118 231 221
2.2263 -2.9389 1.1582 0 118 231 221
2.213 -2.9366 1.1547 0 118 231 221
2.0315 -2.9029 1.1124 0 118 231 221
1.9755 -2.892 1.0999 0 118 231 221
1.945 -2.8859 1.0926 0 118 231 221
1.9145 -2.8799 1.0857 0 118 231 221
1.9028 -2.8778 1.0833 0 118 231 221
1.873 -2.8717 1.0764 0 118 231 221
1.8557 -2.8688 1.0728 0 118 231 221
1.8494 -2.867 1.0715 0 118 231 221
1.838 -2.865 1.069 0 118 231 221
1.8206 -2.8615 1.0649 0 118 231 221
1.8147 -2.8603 1.0635 0 118 231 221
1.7921 -2.8564 1.0589 0 118 231 221
1.7861 -2.8546 1.0571 0 118 231 221
1.7577 -2.8489 1.0521 0 118 231 221
1.9634 -2.8897 1.0923 0 118 231 221
1.957 -2.8883 1.0908 0 118 231 221
1.9389 -2.8848 1.0867 0 118 231 221
1.9206 -2.8811 1.0826 0 118 231 221
1.9148 -2.8803 1.0811 0 118 231 221
1.9088 -2.879 1.0799 0 118 231 221
1.903 -2.8782 1.0787 0 118 231 221
1.8972 -2.877 1.0774 0 118 231 221
1.8791 -2.8732 1.0736 0 118 231 221
1.8731 -2.8718 1.0717 0 118 231 221
1.8671 -2.8706 1.0706 0 118 231 221
1.8613 -2.8694 1.0691 0 118 231 221
1.8555 -2.8684 1.0679 0 118 231 221
1.8497 -2.8676 1.0671 0 118 231 221
1.8437 -2.8659 1.0651 0 118 231 221
1.8378 -2.8647 1.0641 0 118 231 221
1.8323 -2.864 1.063 0 118 231 221
1.8207 -2.8617 1.0603 0 118 231 221
1.7801 -2.8533 1.0515 0 118 231 221
1.7688 -2.8511 1.0491 0 118 231 221
2.0698 -2.9105 1.1122 0 118 231 221
2.0637 -2.9097 1.1101 0 118 231 221
1.9877 -2.8943 1.0927 0 118 231 221
1.9817 -2.8933 1.0915 0 118 231 221
1.9754 -2.8919 1.0902 0 118 231 221
1.957 -2.8883 1.0861 0 118 231 221
1.9513 -2.8875 1.0849 0 118 231 221
1.9206 -2.8811 1.0779 0 118 231 221
1.9146 -2.8799 1.0762 0 118 231 221
1.897 -2.8767 1.0726 0 118 231 221
1.885 -2.8743 1.0697 0 118 231 221
1.867 -2.8705 1.0659 0 118 231 221
1.8496 -2.8673 1.0623 0 118 231 221
1.8438 -2.866 1.0604 0 118 231 221
1.8378 -2.8647 1.0595 0 118 231 221
1.8323 -2.8641 1.0583 0 118 231 221
1.8264 -2.8626 1.0566 0 118 231 221
1.8205 -2.8613 1.0555 0 118 231 221
1.809 -2.8592 1.0543 0 118 231 221
1.7021 -2.838 1.0299 0 118 231 221
1.6329 -3.0991 1.0908 0 118 231 221
2.213 -2.9367 1.1397 0 118 231 221
2.0575 -2.9087 1.1043 0 118 231 221
2.019 -2.9006 1.0951 0 118 231 221
1.9696 -2.891 1.0839 0 118 231 221
1.9575 -2.889 1.0814 0 118 231 221
1.939 -2.8849 1.0772 0 118 231 221
1.9329 -2.8836 1.0758 0 118 231 221
1.9209 -2.8815 1.0732 0 118 231 221
1.9149 -2.8805 1.0717 0 118 231 221
1.8971 -2.8769 1.0678 0 118 231 221
1.8795 -2.8737 1.0643 0 118 231 221
1.8614 -2.8696 1.0597 0 118 231 221
1.8496 -2.8673 1.0576 0 118 231 221
1.8264 -2.8627 1.0518 0 118 231 221
1.8034 -2.8583 1.0471 0 118 231 221
1.6805 -2.8587 1.0284 0 118 231 221
1.5762 -3.3839 1.1566 0 118 231 221
2.1997 -2.9341 1.1314 0 118 231 221
2.0891 -2.9144 1.1063 0 118 231 221
2.0699 -2.9107 1.1024 0 118 231 221
2.0316 -2.9031 1.0929 0 118 231 221
2.0128 -2.8994 1.0889 0 118 231 221
2.007 -2.8987 1.0879 0 118 231 221
1.994 -2.8956 1.085 0 118 231 221
1.9452 -2.8863 1.0737 0 118 231 221
1.9271 -2.8828 1.0697 0 118 231 221
1.9147 -2.8802 1.0668 0 118 231 221
1.885 -2.8743 1.0602 0 118 231 221
1.879 -2.873 1.0593 0 118 231 221
1.8732 -2.872 1.0576 0 118 231 221
1.8673 -2.8707 1.0565 0 118 231 221
1.8382 -2.8652 1.0504 0 118 231 221
1.8207 -2.8617 1.0463 0 118 231 221
1.8091 -2.8594 1.0452 0 118 231 221
1.6542 -2.9922 1.0553 0 118 231 221
2.0067 -2.8982 1.0827 0 118 231 221
1.9634 -2.8897 1.073 0 118 231 221
1.9268 -2.8824 1.0647 0 118 231 221
1.9146 -2.88 1.062 0 118 231 221
1.8908 -2.8754 1.057 0 118 231 221
1.8733 -2.8721 1.0531 0 118 231 221
1.8496 -2.8674 1.0483 0 118 231 221
1.8381 -2.8652 1.0457 0 118 231 221
1.8322 -2.8639 1.0442 0 118 231 221
1.8262 -2.8625 1.0424 0 118 231 221
1.8206 -2.8615 1.0416 0 118 231 221
1.8147 -2.8603 1.0403 0 118 231 221
1.809 -2.8592 1.0404 0 118 231 221
1.7521 -2.8479 1.027 0 118 231 221
1.6582 -2.9729 1.0451 0 118 231 221
2.019 -2.9007 1.0806 0 118 231 221
1.9633 -2.8896 1.0683 0 118 231 221
1.9087 -2.8788 1.0561 0 118 231 221
1.9027 -2.8777 1.0547 0 118 231 221
1.885 -2.8742 1.0508 0 118 231 221
1.8732 -2.8719 1.0482 0 118 231 221
1.8674 -2.8709 1.0472 0 118 231 221
1.8558 -2.8689 1.0446 0 118 231 221
1.8209 -2.862 1.0371 0 118 231 221
1.7977 -2.8574 1.0322 0 118 231 221
1.7076 -2.8393 1.0127 0 118 231 221
2.2131 -2.9368 1.1195 0 118 231 221
2.0067 -2.8983 1.0732 0 118 231 221
1.9268 -2.8824 1.0551 0 118 231 221
1.8613 -2.8695 1.0409 0 118 231 221
1.8555 -2.8684 1.0396 0 118 231 221
1.8497 -2.8675 1.0389 0 118 231 221
1.8207 -2.8617 1.0323 0 118 231 221
1.5976 -3.2884 1.1134 0 118 231 221
1.5961 -3.2957 1.1146 0 118 231 221
2.1794 -2.9302 1.1068 0 118 231 221
2.0069 -2.8986 1.0685 0 118 231 221
2.0006 -2.8973 1.0667 0 118 231 221
1.9942 -2.8959 1.0658 0 118 231 221
1.9695 -2.8909 1.0599 0 118 231 221
1.9571 -2.8884 1.0574 0 118 231 221
1.927 -2.8826 1.0506 0 118 231 221
1.9027 -2.8777 1.0453 0 118 231 221
1.8909 -2.8756 1.0429 0 118 231 221
1.8322 -2.8639 1.0302 0 118 231 221
2.0957 -2.9158 1.0834 0 118 231 221
2.0699 -2.9107 1.0779 0 118 231 221
1.9941 -2.8959 1.061 0 118 231 221
1.9696 -2.891 1.0551 0 118 231 221
1.9269 -2.8825 1.0456 0 118 231 221
1.9209 -2.8815 1.0446 0 118 231 221
1.8971 -2.8769 1.0394 0 118 231 221
1.8734 -2.8723 1.0342 0 118 231 221
1.8495 -2.8673 1.0295 0 118 231 221
1.6647 -2.941 1.019 0 118 231 221
1.602 -3.2662 1.0978 0 118 231 221
2.0132 -2.9 1.0601 0 118 231 221
1.9756 -2.8922 1.0519 0 118 231 221
1.9572 -2.8886 1.0479 0 118 231 221
1.891 -2.8758 1.0335 0 118 231 221
2.0765 -2.9123 1.0691 0 118 231 221
2.038 -2.9045 1.061 0 118 231 221
1.9942 -2.896 1.0514 0 118 231 221
1.9818 -2.8934 1.0482 0 118 231 221
1.9756 -2.8922 1.0471 0 118 231 221
1.9701 -2.8917 1.0458 0 118 231 221
1.8557 -2.8687 1.021 0 118 231 221
1.8208 -2.8619 1.0138 0 118 231 221
1.6785 -2.8718 0.995 0 118 231 221
1.662 -2.9535 1.013 0 118 231 221
2.038 -2.9045 1.0562 0 118 231 221
2.0009 -2.8976 1.0475 0 118 231 221
1.9818 -2.8934 1.0434 0 118 231 221
1.9756 -2.8922 1.0423 0 118 231 221
1.9696 -2.891 1.0407 0 118 231 221
1.8908 -2.8754 1.0241 0 118 231 221
1.8498 -2.8677 1.0156 0 118 231 221
1.6759 -2.8842 0.9931 0 118 231 221
1.5949 -3.3038 1.092 0 118 231 221
1.5636 -3.447 1.1274 0 118 231 221
1.9881 -2.8948 1.0399 0 118 231 221
1.9761 -2.8929 1.0377 0 118 231 221
1.9574 -2.889 1.0337 0 118 231 221
1.9513 -2.8875 1.0323 0 118 231 221
1.897 -2.8768 1.0205 0 118 231 221
1.8851 -2.8745 1.0179 0 118 231 221
1.8496 -2.8675 1.0109 0 118 231 221
1.8265 -2.8629 1.0054 0 118 231 221
1.7921 -2.8564 0.9987 0 118 231 221
1.769 -2.8514 0.9941 0 118 231 221
1.758 -2.8494 0.9927 0 118 231 221
1.6808 -2.8592 0.9831 0 118 231 221
2.051 -2.9073 1.0492 0 118 231 221
1.976 -2.8928 1.0331 0 118 231 221
1.915 -2.8806 1.0195 0 118 231 221
1.8556 -2.8687 1.0071 0 118 231 221
1.8381 -2.8652 1.0037 0 118 231 221
1.8265 -2.8628 1.0008 0 118 231 221
1.7979 -2.8577 0.9954 0 118 231 221
1.6547 -3.002 1.0114 0 118 231 221
2.0959 -2.9161 1.0541 0 118 231 221
2.0636 -2.9096 1.0466 0 118 231 221
2.0255 -2.9022 1.0387 0 118 231 221
1.964 -2.8906 1.0256 0 118 231 221
1.9207 -2.8814 1.0163 0 118 231 221
1.891 -2.8757 1.01 0 118 231 221
1.8497 -2.8675 1.0016 0 118 231 221
1.8439 -2.8663 0.9998 0 118 231 221
1.8209 -2.862 0.9953 0 118 231 221
1.815 -2.8607 0.9939 0 118 231 221
2.1092 -2.9192 1.052 0 118 231 221
2.0068 -2.8984 1.0298 0 118 231 221
1.9091 -2.8794 1.0091 0 118 231 221
1.8855 -2.875 1.0041 0 118 231 221
1.8673 -2.8709 1.0003 0 118 231 221
1.8498 -2.8677 0.997 0 118 231 221
1.7919 -2.8561 0.9848 0 118 231 221
1.7804 -2.8537 0.9824 0 118 231 221
1.7298 -2.8438 0.972 0 118 231 221
1.9881 -2.8948 1.0208 0 118 231 221
1.9697 -2.8911 1.0169 0 118 231 221
1.6007 -3.2738 1.0598 0 118 231 221
2.1864 -2.9318 1.0583 0 118 231 221
2.083 -2.9135 1.0363 0 118 231 221
1.9759 -2.8927 1.0139 0 118 231 221
1.9149 -2.8805 1.0006 0 118 231 221
1.897 -2.8768 0.9971 0 118 231 221
1.8675 -2.8711 0.9911 0 118 231 221
1.8323 -2.8641 0.9838 0 118 231 221
2.1795 -2.9304 1.052 0 118 231 221
2.0895 -2.9149 1.0329 0 118 231 221
2.0131 -2.8999 1.0168 0 118 231 221
1.9208 -2.8815 0.9975 0 118 231 221
1.8912 -2.8759 0.9913 0 118 231 221
1.8792 -2.8734 0.989 0 118 231 221
1.8093 -2.8597 0.9759 0 118 231 221
1.6334 -3.1094 1.012 0 118 231 221
2.109 -2.9188 1.0323 0 118 231 221
2.0447 -2.9061 1.0185 0 118 231 221
2.0256 -2.9023 1.0146 0 118 231 221
1.7133 -2.8407 0.9509 0 118 231 221
1.6899 -2.8338 0.9453 0 118 231 221
2.0256 -2.9023 1.0099 0 118 231 221
1.9757 -2.8924 0.9995 0 118 231 221
1.8617 -2.8701 0.9758 0 118 231 221
1.8442 -2.8667 0.9722 0 118 231 221
1.8383 -2.8654 0.9713 0 118 231 221
1.7863 -2.855 0.9604 0 118 231 221
1.8852 -2.8746 0.9759 0 118 231 221
1.8675 -2.8712 0.9724 0 118 231 221
1.6759 -2.8842 0.9433 0 118 231 221
1.6722 -2.903 0.9476 0 118 231 221
1.6416 -3.0688 0.9841 0 118 231 221
1.5949 -3.3037 1.0368 0 118 231 221
2.0382 -2.9048 0.9984 0 118 231 221
1.7805 -2.8539 0.946 0 118 231 221
1.6403 -3.0757 0.9807 0 118 231 221
1.5903 -3.3262 1.037 0 118 231 221
2.1091 -2.9189 1.0079 0 118 231 221
1.9392 -2.8853 0.973 0 118 231 221
1.8913 -2.8759 0.9634 0 118 231 221
1.6533 -2.9995 0.9548 0 118 231 221
1.6417 -3.069 0.97 0 118 231 221
2.2205 -2.9388 1.0213 0 118 231 221
2.0072 -2.899 0.9773 0 118 231 221
1.8498 -2.8677 0.946 0 118 231 221
1.8266 -2.8631 0.9409 0 118 231 221
1.8152 -2.861 0.9389 0 118 231 221
1.9334 -2.8844 0.9577 0 118 231 221
2.1935 -2.9335 1.0057 0 118 231 221
2.2271 -2.94 1.0077 0 118 231 221
1.8794 -2.8737 0.9381 0 118 231 221
1.5655 -3.4513 1.0362 0 118 231 221
1.8267 -2.8633 0.9226 0 118 231 221
1.8796 -2.874 0.9289 0 118 231 221
2.0577 -2.909 0.9589 0 118 231 221
2.0578 -2.9092 0.9543 0 118 231 221
1.6638 -2.9479 0.9024 0 118 231 221
2.2066 -2.9357 0.9736 0 118 231 221
2.207 -2.9362 0.9688 0 118 231 221
1.6799 -2.866 0.8757 0 118 231 221
1.6052 -3.2418 0.9539 0 118 231 221
1.589 -3.3235 0.9715 0 118 231 221
1.8369 -2.8633 0.8925 0 118 231 221
1.67 -2.9158 0.882 0 118 231 221
1.6675 -2.9285 0.8837 0 118 231 221
1.6469 -3.0326 0.9063 0 118 231 221
1.6182 -3.1772 0.9358 0 118 231 221
2.2272 -2.9402 0.9631 0 118 231 221
2.2 -2.9347 0.9574 0 118 231 221
2.1734 -2.9298 0.9525 0 118 231 221
1.6306 -3.1139 0.9182 0 118 231 221
2.2205 -2.9388 0.9568 0 118 231 221
2.2068 -2.936 0.954 0 118 231 221
2.1601 -2.9271 0.945 0 118 231 221
1.74 -2.8442 0.8658 0 118 231 221
1.611 -3.2128 0.9336 0 118 231 221
1.5479 -3.5298 1.002 0 118 231 221
1.6249 -3.1411 0.9138 0 118 231 221
1.6193 -3.1691 0.9196 0 118 231 221
1.6111 -3.2129 0.929 0 118 231 221
1.6024 -3.2567 0.9377 0 118 231 221
1.6007 -3.2636 0.9393 0 118 231 221
2.2273 -2.9403 0.9484 0 118 231 221
2.2136 -2.9373 0.9453 0 118 231 221
2.1734 -2.9297 0.9378 0 118 231 221
1.8502 -2.8683 0.8774 0 118 231 221
1.6748 -2.8905 0.8585 0 118 231 221
1.6348 -3.0935 0.8997 0 118 231 221
1.6294 -3.1208 0.9052 0 118 231 221
1.6265 -3.1344 0.908 0 118 231 221
1.6209 -3.1625 0.9137 0 118 231 221
1.6195 -3.1696 0.9148 0 118 231 221
1.6097 -3.2201 0.9253 0 118 231 221
1.6008 -3.2637 0.9344 0 118 231 221
1.5705 -3.4166 0.9665 0 118 231 221
2.2275 -2.9406 0.9435 0 118 231 221
2.1937 -2.9338 0.9369 0 118 231 221
1.6677 -2.929 0.8612 0 118 231 221
1.6638 -2.9478 0.866 0 118 231 221
1.6548 -2.9932 0.8748 0 118 231 221
1.6267 -3.1348 0.9034 0 118 231 221
1.6197 -3.1701 0.9103 0 118 231 221
2.1935 -2.9337 0.9319 0 118 231 221
1.6572 -2.98 0.8675 0 118 231 221
1.6363 -3.0869 0.8891 0 118 231 221
1.6292 -3.1204 0.8957 0 118 231 221
1.6251 -3.1415 0.8999 0 118 231 221
1.5706 -3.4168 0.9565 0 118 231 221
2.2275 -2.9405 0.9336 0 118 231 221
2.2208 -2.9392 0.9323 0 118 231 221
2.214 -2.9378 0.9306 0 118 231 221
2.2073 -2.9366 0.9296 0 118 231 221
1.6039 -3.2493 0.9173 0 118 231 221
2.2073 -2.9366 0.9247 0 118 231 221
2.2005 -2.9353 0.9232 0 118 231 221
2.1467 -2.9245 0.9134 0 118 231 221
1.7029 -2.8394 0.8329 0 118 231 221
1.6726 -2.9036 0.8442 0 118 231 221
1.6702 -2.9163 0.8461 0 118 231 221
1.6295 -3.1211 0.8865 0 118 231 221
1.614 -3.1984 0.9019 0 118 231 221
1.5981 -3.2789 0.9181 0 118 231 221
2.214 -2.9379 0.9208 0 118 231 221
2.2072 -2.9365 0.9199 0 118 231 221
1.6784 -2.8717 0.8331 0 118 231 221
1.669 -2.9227 0.8423 0 118 231 221
1.6588 -2.974 0.8519 0 118 231 221
1.628 -3.1278 0.8831 0 118 231 221
1.6225 -3.1558 0.8883 0 118 231 221
1.6167 -3.1842 0.8943 0 118 231 221
1.611 -3.2128 0.9001 0 118 231 221
1.5611 -3.4644 0.9507 0 118 231 221
2.227 -2.9399 0.9187 0 118 231 221
2.2208 -2.9391 0.9176 0 118 231 221
2.214 -2.9379 0.916 0 118 231 221
2.1011 -2.9157 0.895 0 118 231 221
1.6788 -2.8723 0.829 0 118 231 221
1.6703 -2.9163 0.8372 0 118 231 221
1.6575 -2.9806 0.8496 0 118 231 221
1.6508 -3.0128 0.8559 0 118 231 221
1.6483 -3.026 0.8581 0 118 231 221
1.6431 -3.0531 0.8639 0 118 231 221
1.6239 -3.1488 0.8825 0 118 231 221
1.6125 -3.2055 0.8936 0 118 231 221
1.6098 -3.2203 0.8966 0 118 231 221
1.58 -3.3698 0.9266 0 118 231 221
1.5722 -3.4087 0.9344 0 118 231 221
2.2272 -2.9402 0.9138 0 118 231 221
2.2209 -2.9394 0.9127 0 118 231 221
2.2141 -2.938 0.911 0 118 231 221
2.167 -2.9288 0.9022 0 118 231 221
1.6651 -2.9417 0.8366 0 118 231 221
1.6388 -3.073 0.8629 0 118 231 221
1.6322 -3.1072 0.8695 0 118 231 221
1.6309 -3.1144 0.8714 0 118 231 221
1.6279 -3.1275 0.8737 0 118 231 221
1.6069 -3.235 0.8948 0 118 231 221
1.5875 -3.3312 0.9139 0 118 231 221
1.5861 -3.3393 0.9157 0 118 231 221
1.5814 -3.3617 0.9202 0 118 231 221
2.2277 -2.9408 0.9092 0 118 231 221
2.2209 -2.9393 0.9079 0 118 231 221
2.2003 -2.9351 0.9035 0 118 231 221
2.0882 -2.9131 0.8828 0 118 231 221
1.6484 -3.0264 0.849 0 118 231 221
1.635 -3.0938 0.8623 0 118 231 221
1.6308 -3.1143 0.8667 0 118 231 221
1.6253 -3.1419 0.8716 0 118 231 221
1.6239 -3.1489 0.8731 0 118 231 221
1.6198 -3.1702 0.8771 0 118 231 221
1.6169 -3.1846 0.88 0 118 231 221
1.6112 -3.2132 0.8858 0 118 231 221
2.2277 -2.9408 0.9041 0 118 231 221
2.2003 -2.9351 0.8987 0 118 231 221
2.1871 -2.9327 0.8962 0 118 231 221
1.95 -2.8856 0.8533 0 118 231 221
1.6688 -2.9223 0.8243 0 118 231 221
1.6588 -2.974 0.8337 0 118 231 221
1.6523 -3.0067 0.8409 0 118 231 221
1.6417 -3.0598 0.8512 0 118 231 221
1.6403 -3.0665 0.8526 0 118 231 221
1.6376 -3.0798 0.8553 0 118 231 221
1.6337 -3.1006 0.859 0 118 231 221
1.6282 -3.1281 0.8645 0 118 231 221
1.6198 -3.1702 0.8723 0 118 231 221
1.6053 -3.242 0.8862 0 118 231 221
1.5996 -3.2716 0.8924 0 118 231 221
1.5844 -3.3462 0.907 0 118 231 221
1.5831 -3.3545 0.9088 0 118 231 221
1.5816 -3.3621 0.9104 0 118 231 221
2.2274 -2.9404 0.8992 0 118 231 221
2.2074 -2.9368 0.8953 0 118 231 221
2.2006 -2.9354 0.8938 0 118 231 221
2.1272 -2.9208 0.8805 0 118 231 221
1.9746 -2.8906 0.853 0 118 231 221
1.7793 -2.8519 0.8191 0 118 231 221
1.6741 -2.8977 0.8148 0 118 231 221
1.6471 -3.0329 0.8418 0 118 231 221
1.6322 -3.1072 0.8556 0 118 231 221
1.6195 -3.1695 0.8674 0 118 231 221
1.6126 -3.2056 0.8745 0 118 231 221
1.6097 -3.2201 0.8773 0 118 231 221
1.6083 -3.2274 0.8787 0 118 231 221
1.5966 -3.2866 0.8907 0 118 231 221
1.5921 -3.3087 0.895 0 118 231 221
2.2278 -2.9409 0.8945 0 118 231 221
2.1801 -2.9312 0.8854 0 118 231 221
2.1077 -2.9171 0.8722 0 118 231 221
2.0434 -2.9043 0.8605 0 118 231 221
1.7139 -2.8415 0.8041 0 118 231 221
1.6563 -2.9872 0.8283 0 118 231 221
1.6391 -3.0736 0.8445 0 118 231 221
1.636 -3.0865 0.847 0 118 231 221
1.6309 -3.1145 0.8527 0 118 231 221
1.6225 -3.1559 0.8601 0 118 231 221
1.6184 -3.1776 0.8644 0 118 231 221
1.6153 -3.1911 0.8668 0 118 231 221
1.6055 -3.2424 0.8767 0 118 231 221
1.5784 -3.3776 0.9035 0 118 231 221
2.2277 -2.9408 0.8895 0 118 231 221
2.2142 -2.9381 0.8867 0 118 231 221
2.1802 -2.9314 0.8806 0 118 231 221
2.1207 -2.9196 0.8697 0 118 231 221
1.6678 -2.9291 0.8118 0 118 231 221
1.665 -2.9416 0.8141 0 118 231 221
1.6588 -2.974 0.8203 0 118 231 221
1.6573 -2.9802 0.8222 0 118 231 221
1.6309 -3.1145 0.848 0 118 231 221
1.6267 -3.135 0.8516 0 118 231 221
1.6183 -3.1774 0.8596 0 118 231 221
1.6039 -3.2495 0.874 0 118 231 221
1.589 -3.3235 0.8878 0 118 231 221
2.2277 -2.9408 0.8846 0 118 231 221
2.2142 -2.9382 0.8818 0 118 231 221
2.2006 -2.9354 0.8793 0 118 231 221
1.9502 -2.8859 0.8348 0 118 231 221
1.6628 -2.9547 0.8126 0 118 231 221
1.6377 -3.08 0.8368 0 118 231 221
1.6323 -3.1074 0.8415 0 118 231 221
1.6296 -3.1213 0.8443 0 118 231 221
1.6255 -3.1422 0.8482 0 118 231 221
1.5907 -3.3166 0.8816 0 118 231 221
2.2139 -2.9377 0.8768 0 118 231 221
2.2075 -2.9369 0.8758 0 118 231 221
1.6677 -2.9289 0.8028 0 118 231 221
1.6615 -2.9611 0.8099 0 118 231 221
1.651 -3.0132 0.8195 0 118 231 221
1.6253 -3.1419 0.8434 0 118 231 221
1.617 -3.1847 0.8517 0 118 231 221
1.6026 -3.2571 0.8652 0 118 231 221
1.5905 -3.3162 0.8768 0 118 231 221
1.5893 -3.3241 0.8782 0 118 231 221
1.5832 -3.3547 0.8842 0 118 231 221
1.5815 -3.3619 0.8857 0 118 231 221
2.2209 -2.9394 0.8736 0 118 231 221
2.2143 -2.9383 0.8721 0 118 231 221
2.1469 -2.9248 0.8603 0 118 231 221
1.6405 -3.0669 0.825 0 118 231 221
1.635 -3.094 0.8298 0 118 231 221
1.6283 -3.1283 0.8364 0 118 231 221
1.6128 -3.206 0.8507 0 118 231 221
1.6113 -3.2135 0.8524 0 118 231 221
1.5861 -3.3392 0.8764 0 118 231 221
1.5832 -3.3546 0.8792 0 118 231 221
2.2278 -2.9409 0.87 0 118 231 221
2.2138 -2.9377 0.867 0 118 231 221
2.2071 -2.9364 0.8661 0 118 231 221
2.1936 -2.9337 0.8638 0 118 231 221
2.1873 -2.933 0.8623 0 118 231 221
2.1736 -2.93 0.8602 0 118 231 221
2.1668 -2.9285 0.8587 0 118 231 221
2.1539 -2.9264 0.8566 0 118 231 221
2.147 -2.9249 0.8555 0 118 231 221
1.6254 -3.1421 0.834 0 118 231 221
1.6141 -3.1987 0.8447 0 118 231 221
1.6082 -3.2272 0.8499 0 118 231 221
1.5994 -3.2713 0.8585 0 118 231 221
1.5952 -3.2939 0.8625 0 118 231 221
1.5923 -3.309 0.8658 0 118 231 221
1.5859 -3.3388 0.8715 0 118 231 221
1.5816 -3.3622 0.8759 0 118 231 221
2.2142 -2.9382 0.8623 0 118 231 221
2.193 -2.933 0.8586 0 118 231 221
2.1873 -2.933 0.8574 0 118 231 221
2.1402 -2.9234 0.8493 0 118 231 221
2.1274 -2.921 0.8471 0 118 231 221
2.1208 -2.9197 0.8459 0 118 231 221
1.655 -2.9938 0.8021 0 118 231 221
1.6083 -3.2274 0.8452 0 118 231 221
1.6055 -3.2424 0.848 0 118 231 221
1.6041 -3.2499 0.8499 0 118 231 221
2.2211 -2.9396 0.859 0 118 231 221
2.194 -2.9343 0.8542 0 118 231 221
2.1672 -2.929 0.8491 0 118 231 221
1.9624 -2.8884 0.8138 0 118 231 221
1.7627 -2.849 0.7805 0 118 231 221
1.6524 -3.0069 0.7999 0 118 231 221
1.6085 -3.2277 0.8406 0 118 231 221
1.5877 -3.3316 0.8601 0 118 231 221
1.5816 -3.3623 0.8661 0 118 231 221
1.5786 -3.3779 0.8689 0 118 231 221
2.2277 -2.9408 0.8553 0 118 231 221
2.2143 -2.9382 0.8526 0 118 231 221
2.2003 -2.935 0.85 0 118 231 221
2.1874 -2.9331 0.8477 0 118 231 221
2.1738 -2.9303 0.8458 0 118 231 221
2.167 -2.9288 0.8442 0 118 231 221
2.1603 -2.9274 0.8434 0 118 231 221
2.114 -2.918 0.8353 0 118 231 221
1.6404 -3.0667 0.8065 0 118 231 221
1.628 -3.1279 0.8176 0 118 231 221
1.6253 -3.142 0.82 0 118 231 221
1.5922 -3.3089 0.8511 0 118 231 221
2.2276 -2.9407 0.8504 0 118 231 221
2.2212 -2.9398 0.8493 0 118 231 221
2.1669 -2.9287 0.8394 0 118 231 221
2.1339 -2.9225 0.8337 0 118 231 221
2.127 -2.9206 0.8324 0 118 231 221
2.1209 -2.9199 0.8315 0 118 231 221
1.8257 -2.8616 0.7816 0 118 231 221
1.6296 -3.1213 0.8117 0 118 231 221
1.6254 -3.1421 0.8153 0 118 231 221
1.6198 -3.1702 0.8204 0 118 231 221
1.6171 -3.1847 0.8233 0 118 231 221
1.5892 -3.324 0.8489 0 118 231 221
1.5863 -3.3397 0.8521 0 118 231 221
1.5786 -3.3778 0.859 0 118 231 221
2.2278 -2.9411 0.8456 0 118 231 221
2.221 -2.9395 0.8443 0 118 231 221
2.2137 -2.9375 0.8426 0 118 231 221
2.1406 -2.9239 0.8302 0 118 231 221
1.6433 -3.0533 0.7949 0 118 231 221
1.6143 -3.1991 0.8212 0 118 231 221
1.6083 -3.2275 0.8262 0 118 231 221
1.6026 -3.2571 0.8317 0 118 231 221
1.6012 -3.2647 0.8332 0 118 231 221
1.5938 -3.3017 0.8401 0 118 231 221
1.5908 -3.3168 0.8427 0 118 231 221
1.5754 -3.3935 0.8571 0 118 231 221
2.214 -2.9379 0.8379 0 118 231 221
2.2077 -2.9372 0.8371 0 118 231 221
2.2007 -2.9356 0.8356 0 118 231 221
2.1672 -2.9291 0.8299 0 118 231 221
2.1539 -2.9264 0.8277 0 118 231 221
1.9383 -2.8839 0.7914 0 118 231 221
2.2209 -2.9394 0.8346 0 118 231 221
2.2142 -2.9382 0.8331 0 118 231 221
2.2076 -2.937 0.8322 0 118 231 221
2.2009 -2.9358 0.8308 0 118 231 221
2.194 -2.9344 0.83 0 118 231 221
2.1806 -2.9317 0.8276 0 118 231 221
2.1736 -2.9301 0.8265 0 118 231 221
2.1607 -2.9279 0.8243 0 118 231 221
1.9996 -2.8958 0.7966 0 118 231 221
