-1.2669 -8.4675 0.0133 1 95 120 125
-4.8248 -7.8571 0.0166 1 95 120 125
-4.8174 -7.8231 0.0157 1 95 120 125
-4.8106 -7.79 0.0151 1 95 120 125
-4.8086 -7.7645 0.0159 1 95 120 125
-4.8144 -7.7527 0.0153 1 95 120 125
-4.8155 -7.7327 0.0159 1 95 120 125
-4.8273 -7.73 0.015 1 95 120 125
-4.8385 -7.7263 0.0147 1 95 120 125
-5.046 -7.6874 0.0157 1 95 120 125
-5.0593 -7.6866 0.0169 1 95 120 125
-5.0726 -7.6858 0.016 1 95 120 125
-5.0827 -7.68 0.0157 1 95 120 125
-5.0957 -7.6787 0.0155 1 95 120 125
-5.1084 -7.6769 0.0152 1 95 120 125
-5.1198 -7.6731 0.0166 1 95 120 125
-5.1318 -7.6703 0.0155 1 95 120 125
-5.1445 -7.6684 0.0149 1 95 120 125
-5.1569 -7.6654 0.0152 1 95 120 125
-5.1703 -7.6651 0.0146 1 95 120 125
-5.1829 -7.663 0.0158 1 95 120 125
-5.1974 -7.6637 0.0149 1 95 120 125
-5.2071 -7.6572 0.0141 1 95 120 125
-5.2196 -7.6549 0.015 1 95 120 125
-5.232 -7.6523 0.0141 1 95 120 125
-5.2454 -7.6513 0.0159 1 95 120 125
-5.2588 -7.6502 0.0138 1 95 120 125
-5.2702 -7.6463 0.017 1 95 120 125
-5.2826 -7.6437 0.0144 1 95 120 125
-5.295 -7.641 0.0165 1 95 120 125
-5.3205 -7.6367 0.0168 1 95 120 125
-5.3336 -7.6351 0.0168 1 95 120 125
-5.3464 -7.6329 0.0142 1 95 120 125
-5.3588 -7.6301 0.0162 1 95 120 125
-5.3707 -7.6268 0.0171 1 95 120 125
-5.3836 -7.6247 0.0159 1 95 120 125
-5.3961 -7.622 0.0162 1 95 120 125
-5.4086 -7.6193 0.0163 1 95 120 125
-5.4211 -7.6167 0.0157 1 95 120 125
-5.4337 -7.6141 0.0157 1 95 120 125
-5.4465 -7.6119 0.0157 1 95 120 125
-5.4617 -7.6128 0.016 1 95 120 125
-5.4709 -7.6054 0.016 1 95 120 125
-5.4838 -7.6032 0.0151 1 95 120 125
-5.4966 -7.6008 0.0154 1 95 120 125
-5.508 -7.5964 0.0149 1 95 120 125
-5.5219 -7.5955 0.016 1 95 120 125
-5.5343 -7.5925 0.0152 1 95 120 125
-5.5476 -7.5907 0.0143 1 95 120 125
-5.5606 -7.5884 0.0149 1 95 120 125
-5.5733 -7.5857 0.0176 1 95 120 125
-5.5853 -7.582 0.0173 1 95 120 125
-5.5989 -7.5806 0.0149 1 95 120 125
-5.6123 -7.5787 0.0134 1 95 120 125
-5.6243 -7.575 0.0173 1 95 120 125
-5.6384 -7.5741 0.0167 1 95 120 125
-5.6502 -7.5702 0.017 1 95 120 125
-5.6635 -7.568 0.0173 1 95 120 125
-5.6754 -7.5641 0.0159 1 95 120 125
-5.6886 -7.562 0.0168 1 95 120 125
-5.7015 -7.5592 0.0165 1 95 120 125
-5.7178 -7.5611 0.0162 1 95 120 125
-5.7278 -7.5545 0.0165 1 95 120 125
-5.7401 -7.5511 0.0156 1 95 120 125
-5.7541 -7.5497 0.0162 1 95 120 125
-5.7674 -7.5475 0.0156 1 95 120 125
-5.7798 -7.5441 0.0159 1 95 120 125
-5.7935 -7.5423 0.0159 1 95 120 125
-5.8067 -7.5398 0.0154 1 95 120 125
-5.8194 -7.5368 0.016 1 95 120 125
-5.8326 -7.5342 0.0148 1 95 120 125
-5.8458 -7.5317 0.0157 1 95 120 125
-5.8594 -7.5297 0.0151 1 95 120 125
-5.8722 -7.5265 0.0151 1 95 120 125
-5.8853 -7.5239 0.0157 1 95 120 125
-5.8995 -7.5225 0.0178 1 95 120 125
-5.9117 -7.5186 0.0151 1 95 120 125
-5.9256 -7.5164 0.0142 1 95 120 125
-5.9387 -7.5135 0.0179 1 95 120 125
-5.9515 -7.5102 0.0185 1 95 120 125
-5.9648 -7.5082 0.017 1 95 120 125
-5.9804 -7.5084 0.017 1 95 120 125
-5.9923 -7.5034 0.0167 1 95 120 125
-6.0051 -7.5006 0.0167 1 95 120 125
-6.0189 -7.4985 0.0176 1 95 120 125
-6.0323 -7.4959 0.0167 1 95 120 125
-6.0456 -7.4931 0.0171 1 95 120 125
-6.0597 -7.4913 0.0162 1 95 120 125
-6.0729 -7.4883 0.0165 1 95 120 125
-6.086 -7.4853 0.0168 1 95 120 125
-6.0993 -7.4824 0.0159 1 95 120 125
-6.1128 -7.4798 0.0159 1 95 120 125
-6.1258 -7.4765 0.0156 1 95 120 125
-6.14 -7.4746 0.0159 1 95 120 125
-6.1537 -7.4722 0.0162 1 95 120 125
-6.168 -7.4703 0.0153 1 95 120 125
-6.1794 -7.4645 0.0153 1 95 120 125
-6.186 -7.4539 0.0181 1 95 120 125
-6.199 -7.4504 0.0153 1 95 120 125
-6.2147 -7.4502 0.0154 1 95 120 125
-6.226 -7.4447 0.0147 1 95 120 125
-6.241 -7.4437 0.0178 1 95 120 125
-6.2545 -7.4408 0.0175 1 95 120 125
-6.2679 -7.4377 0.0175 1 95 120 125
-6.2813 -7.4346 0.0175 1 95 120 125
-6.2953 -7.4322 0.0142 1 95 120 125
-6.3079 -7.4282 0.0173 1 95 120 125
-6.3214 -7.4251 0.0176 1 95 120 125
-6.3365 -7.4235 0.0176 1 95 120 125
-6.3504 -7.4209 0.017 1 95 120 125
-6.3641 -7.4185 0.0167 1 95 120 125
-6.3785 -7.4163 0.0164 1 95 120 125
-6.3919 -7.4131 0.0167 1 95 120 125
-6.4064 -7.4111 0.0164 1 95 120 125
-6.4188 -7.4066 0.0174 1 95 120 125
-6.4339 -7.4052 0.0155 1 95 120 125
-6.4466 -7.4009 0.0165 1 95 120 125
-6.4609 -7.3985 0.0159 1 95 120 125
-6.4761 -7.3972 0.0159 1 95 120 125
-6.4889 -7.3926 0.0165 1 95 120 125
-6.5033 -7.3903 0.015 1 95 120 125
-6.5182 -7.3884 0.0162 1 95 120 125
-6.5339 -7.3874 0.0153 1 95 120 125
-6.5467 -7.3838 0.0187 1 95 120 125
-6.5603 -7.3804 0.0156 1 95 120 125
-6.5737 -7.3768 0.0172 1 95 120 125
-6.5899 -7.3762 0.0191 1 95 120 125
-6.6023 -7.3709 0.0147 1 95 120 125
-6.6162 -7.3683 0.0182 1 95 120 125
-6.6307 -7.3658 0.0151 1 95 120 125
-6.6442 -7.3622 0.0169 1 95 120 125
-6.6601 -7.3606 0.0185 1 95 120 125
-6.6737 -7.3576 0.017 1 95 120 125
-6.6877 -7.3544 0.0182 1 95 120 125
-6.7029 -7.3521 0.0173 1 95 120 125
-6.7155 -7.3478 0.0167 1 95 120 125
-6.7291 -7.3442 0.018 1 95 120 125
-6.744 -7.3418 0.0161 1 95 120 125
-6.7594 -7.34 0.017 1 95 120 125
-6.7732 -7.3366 0.0167 1 95 120 125
-6.7884 -7.3345 0.0158 1 95 120 125
-6.8023 -7.331 0.0171 1 95 120 125
-6.8167 -7.328 0.0158 1 95 120 125
-1.2667 -8.4663 0.0025 1 95 120 125
-4.8237 -7.8554 0.0047 1 95 120 125
-4.8171 -7.8226 0.0042 1 95 120 125
-4.8108 -7.7904 0.0039 1 95 120 125
-4.8114 -7.769 0.0041 1 95 120 125
-4.8147 -7.7531 0.0036 1 95 120 125
-4.8176 -7.736 0.0044 1 95 120 125
-4.8279 -7.7309 0.0033 1 95 120 125
-4.8393 -7.7275 0.0033 1 95 120 125
-5.0459 -7.6872 0.0039 1 95 120 125
-5.0584 -7.6853 0.0053 1 95 120 125
-5.0725 -7.6857 0.0045 1 95 120 125
-5.0827 -7.6801 0.0042 1 95 120 125
-5.0957 -7.6788 0.0039 1 95 120 125
-5.1081 -7.6764 0.0033 1 95 120 125
-5.12 -7.6734 0.005 1 95 120 125
-5.1331 -7.6722 0.0039 1 95 120 125
-5.1443 -7.6681 0.0033 1 95 120 125
-5.1576 -7.6664 0.0036 1 95 120 125
-5.1701 -7.6647 0.003 1 95 120 125
-5.1817 -7.6612 0.0042 1 95 120 125
-5.1978 -7.6643 0.0033 1 95 120 125
-5.2071 -7.6572 0.0024 1 95 120 125
-5.2191 -7.6541 0.0033 1 95 120 125
-5.2322 -7.6527 0.0022 1 95 120 125
-5.2446 -7.6501 0.0039 1 95 120 125
-5.2582 -7.6493 0.0024 1 95 120 125
-5.2701 -7.6461 0.0057 1 95 120 125
-5.283 -7.6443 0.003 1 95 120 125
-5.295 -7.6411 0.0048 1 95 120 125
-5.3209 -7.6373 0.0051 1 95 120 125
-5.3328 -7.6339 0.0048 1 95 120 125
-5.3456 -7.6317 0.0025 1 95 120 125
-5.3588 -7.6302 0.0042 1 95 120 125
-5.3705 -7.6264 0.0051 1 95 120 125
-5.3833 -7.6243 0.0045 1 95 120 125
-5.3963 -7.6224 0.0045 1 95 120 125
-5.4079 -7.6185 0.0048 1 95 120 125
-5.4212 -7.6168 0.0042 1 95 120 125
-5.4337 -7.6141 0.0042 1 95 120 125
-5.4458 -7.6108 0.0039 1 95 120 125
-5.4621 -7.6133 0.0039 1 95 120 125
-5.4707 -7.6052 0.0042 1 95 120 125
-5.4834 -7.6027 0.0034 1 95 120 125
-5.4977 -7.6023 0.0036 1 95 120 125
-5.5095 -7.5986 0.0031 1 95 120 125
-5.5221 -7.5958 0.0039 1 95 120 125
-5.5346 -7.593 0.0034 1 95 120 125
-5.5483 -7.5916 0.0028 1 95 120 125
-5.5606 -7.5884 0.0031 1 95 120 125
-5.5731 -7.5855 0.0057 1 95 120 125
-5.5856 -7.5824 0.0054 1 95 120 125
-5.5981 -7.5794 0.0031 1 95 120 125
-5.6111 -7.5771 0.0016 1 95 120 125
-5.625 -7.576 0.0054 1 95 120 125
-5.6377 -7.5732 0.0049 1 95 120 125
-5.6511 -7.5713 0.0055 1 95 120 125
-5.6635 -7.568 0.0055 1 95 120 125
-5.6758 -7.5646 0.0043 1 95 120 125
-5.6881 -7.5612 0.0052 1 95 120 125
-5.7016 -7.5594 0.0046 1 95 120 125
-5.7174 -7.5605 0.0046 1 95 120 125
-5.7282 -7.5551 0.0049 1 95 120 125
-5.74 -7.5509 0.0037 1 95 120 125
-5.7538 -7.5494 0.0046 1 95 120 125
-5.7675 -7.5476 0.0037 1 95 120 125
-5.7806 -7.5451 0.0043 1 95 120 125
-5.7942 -7.5432 0.004 1 95 120 125
-5.8062 -7.5392 0.0031 1 95 120 125
-5.8196 -7.5369 0.0043 1 95 120 125
-5.8334 -7.5353 0.0031 1 95 120 125
-5.8453 -7.531 0.0037 1 95 120 125
-5.8602 -7.5306 0.0031 1 95 120 125
-5.8727 -7.5273 0.0031 1 95 120 125
-5.8862 -7.525 0.0037 1 95 120 125
-5.8986 -7.5214 0.0058 1 95 120 125
-5.9125 -7.5196 0.0031 1 95 120 125
-5.9261 -7.5169 0.0022 1 95 120 125
-5.9394 -7.5143 0.0058 1 95 120 125
-5.9519 -7.5107 0.0061 1 95 120 125
-5.9643 -7.5075 0.0049 1 95 120 125
-5.9808 -7.5088 0.0052 1 95 120 125
-5.992 -7.503 0.0046 1 95 120 125
-6.0051 -7.5006 0.0046 1 95 120 125
-6.0196 -7.4994 0.0056 1 95 120 125
-6.032 -7.4955 0.0046 1 95 120 125
-6.046 -7.4936 0.005 1 95 120 125
-6.0596 -7.4911 0.004 1 95 120 125
-6.0726 -7.4879 0.0044 1 95 120 125
-6.0852 -7.4843 0.0044 1 95 120 125
-6.0989 -7.4819 0.0038 1 95 120 125
-6.1123 -7.4791 0.0041 1 95 120 125
-6.1279 -7.4791 0.0035 1 95 120 125
-6.1404 -7.4751 0.0038 1 95 120 125
-6.1548 -7.4734 0.0038 1 95 120 125
-6.1674 -7.4696 0.0032 1 95 120 125
-6.1816 -7.4672 0.0032 1 95 120 125
-6.1876 -7.4558 0.0059 1 95 120 125
-6.1989 -7.4504 0.0032 1 95 120 125
-6.213 -7.4482 0.0032 1 95 120 125
-6.2259 -7.4446 0.0026 1 95 120 125
-6.2401 -7.4426 0.0056 1 95 120 125
-6.2541 -7.4403 0.0053 1 95 120 125
-6.2684 -7.4383 0.0056 1 95 120 125
-6.282 -7.4355 0.0056 1 95 120 125
-6.2958 -7.4329 0.0019 1 95 120 125
-6.3079 -7.4282 0.005 1 95 120 125
-6.3225 -7.4264 0.0053 1 95 120 125
-6.3366 -7.4235 0.0053 1 95 120 125
-6.3506 -7.421 0.0047 1 95 120 125
-6.3648 -7.4193 0.0044 1 95 120 125
-6.3785 -7.4163 0.0041 1 95 120 125
-6.3925 -7.4137 0.0041 1 95 120 125
-6.406 -7.4106 0.0044 1 95 120 125
-6.4192 -7.407 0.0047 1 95 120 125
-6.4341 -7.4053 0.0032 1 95 120 125
-6.4478 -7.4023 0.0041 1 95 120 125
-6.4614 -7.3991 0.0035 1 95 120 125
-6.4761 -7.3972 0.0035 1 95 120 125
-6.4896 -7.3934 0.0041 1 95 120 125
-6.5035 -7.3904 0.0026 1 95 120 125
-6.5182 -7.3884 0.0038 1 95 120 125
-6.5319 -7.3852 0.0026 1 95 120 125
-6.5463 -7.3832 0.0063 1 95 120 125
-6.56 -7.38 0.0035 1 95 120 125
-6.5753 -7.3786 0.0051 1 95 120 125
-6.5879 -7.374 0.0063 1 95 120 125
-6.6042 -7.3731 0.0023 1 95 120 125
-6.6155 -7.3675 0.0057 1 95 120 125
-6.63 -7.365 0.0029 1 95 120 125
-6.6448 -7.3628 0.0042 1 95 120 125
-6.6603 -7.3609 0.006 1 95 120 125
-6.6729 -7.3567 0.0045 1 95 120 125
-6.6894 -7.3563 0.0057 1 95 120 125
-6.7025 -7.3516 0.0045 1 95 120 125
-6.7157 -7.348 0.0042 1 95 120 125
-6.73 -7.3451 0.0051 1 95 120 125
-6.7435 -7.3413 0.0036 1 95 120 125
-6.7597 -7.3404 0.0048 1 95 120 125
-6.773 -7.3363 0.0045 1 95 120 125
-6.7896 -7.3358 0.0029 1 95 120 125
-6.8019 -7.3306 0.0045 1 95 120 125
-6.8154 -7.3267 0.0036 1 95 120 125
-1.2668 -8.4666 -0.0082 1 95 120 125
-4.8243 -7.8564 -0.0066 1 95 120 125
-4.8169 -7.8223 -0.0074 1 95 120 125
-4.8109 -7.7906 -0.0079 1 95 120 125
-4.813 -7.7716 -0.0071 1 95 120 125
-4.8163 -7.7556 -0.0079 1 95 120 125
-4.8198 -7.7395 -0.007 1 95 120 125
-4.8272 -7.7298 -0.0079 1 95 120 125
-4.8399 -7.7284 -0.0082 1 95 120 125
-5.0467 -7.6886 -0.0074 1 95 120 125
-5.0594 -7.6867 -0.0062 1 95 120 125
-5.073 -7.6864 -0.0071 1 95 120 125
-5.0834 -7.6812 -0.0074 1 95 120 125
-5.0955 -7.6785 -0.0077 1 95 120 125
-5.1078 -7.676 -0.008 1 95 120 125
-5.1199 -7.6732 -0.0066 1 95 120 125
-5.1322 -7.6709 -0.0077 1 95 120 125
-5.1447 -7.6686 -0.0083 1 95 120 125
-5.1574 -7.6662 -0.008 1 95 120 125
-5.1694 -7.6637 -0.0086 1 95 120 125
-5.1817 -7.6612 -0.0074 1 95 120 125
-5.1975 -7.6638 -0.0083 1 95 120 125
-5.207 -7.657 -0.0092 1 95 120 125
-5.2199 -7.6552 -0.0083 1 95 120 125
-5.2315 -7.6516 -0.0092 1 95 120 125
-5.2445 -7.6499 -0.0075 1 95 120 125
-5.2579 -7.6489 -0.0095 1 95 120 125
-5.2701 -7.6461 -0.006 1 95 120 125
-5.2829 -7.644 -0.0089 1 95 120 125
-5.295 -7.641 -0.0069 1 95 120 125
-5.3189 -7.6344 -0.0066 1 95 120 125
-5.3326 -7.6336 -0.0066 1 95 120 125
-5.3454 -7.6316 -0.0093 1 95 120 125
-5.3573 -7.6281 -0.0072 1 95 120 125
-5.3709 -7.627 -0.0063 1 95 120 125
-5.3826 -7.6233 -0.0072 1 95 120 125
-5.3959 -7.6218 -0.0072 1 95 120 125
-5.4083 -7.619 -0.0072 1 95 120 125
-5.4203 -7.6156 -0.0078 1 95 120 125
-5.4326 -7.6126 -0.0078 1 95 120 125
-5.4456 -7.6106 -0.0078 1 95 120 125
-5.4604 -7.611 -0.0075 1 95 120 125
-5.4714 -7.6061 -0.0075 1 95 120 125
-5.4834 -7.6027 -0.0084 1 95 120 125
-5.4977 -7.6023 -0.0081 1 95 120 125
-5.5094 -7.5984 -0.0087 1 95 120 125
-5.5216 -7.5951 -0.0079 1 95 120 125
-5.5354 -7.5939 -0.0085 1 95 120 125
-5.547 -7.5899 -0.0093 1 95 120 125
-5.5606 -7.5884 -0.0088 1 95 120 125
-5.573 -7.5854 -0.0061 1 95 120 125
-5.5863 -7.5835 -0.0064 1 95 120 125
-5.5982 -7.5797 -0.0088 1 95 120 125
-5.6115 -7.5777 -0.0103 1 95 120 125
-5.6253 -7.5763 -0.0064 1 95 120 125
-5.6377 -7.5732 -0.007 1 95 120 125
-5.6512 -7.5714 -0.0067 1 95 120 125
-5.6632 -7.5677 -0.0064 1 95 120 125
-5.6754 -7.5641 -0.0079 1 95 120 125
-5.6884 -7.5616 -0.007 1 95 120 125
-5.7013 -7.559 -0.0073 1 95 120 125
-5.7175 -7.5607 -0.0076 1 95 120 125
-5.7284 -7.5553 -0.0073 1 95 120 125
-5.7413 -7.5526 -0.0082 1 95 120 125
-5.7538 -7.5493 -0.0073 1 95 120 125
-5.7675 -7.5476 -0.0082 1 95 120 125
-5.7802 -7.5446 -0.0079 1 95 120 125
-5.7925 -7.541 -0.0083 1 95 120 125
-5.8062 -7.5392 -0.0086 1 95 120 125
-5.8196 -7.5369 -0.008 1 95 120 125
-5.833 -7.5347 -0.0092 1 95 120 125
-5.8463 -7.5323 -0.0083 1 95 120 125
-5.8592 -7.5294 -0.0089 1 95 120 125
-5.8733 -7.528 -0.0089 1 95 120 125
-5.8861 -7.5248 -0.0083 1 95 120 125
-5.8997 -7.5227 -0.0059 1 95 120 125
-5.9121 -7.5191 -0.0089 1 95 120 125
-5.9262 -7.5171 -0.0098 1 95 120 125
-5.9394 -7.5143 -0.0062 1 95 120 125
-5.9525 -7.5115 -0.0056 1 95 120 125
-5.9648 -7.5082 -0.0071 1 95 120 125
-5.9805 -7.5084 -0.0071 1 95 120 125
-5.9922 -7.5033 -0.0074 1 95 120 125
-6.0057 -7.5013 -0.0074 1 95 120 125
-6.0189 -7.4985 -0.0065 1 95 120 125
-6.0324 -7.496 -0.0074 1 95 120 125
-6.0456 -7.4931 -0.0071 1 95 120 125
-6.0596 -7.4911 -0.0081 1 95 120 125
-6.0731 -7.4886 -0.0078 1 95 120 125
-6.0855 -7.4846 -0.0075 1 95 120 125
-6.0996 -7.4827 -0.0084 1 95 120 125
-6.1134 -7.4805 -0.0081 1 95 120 125
-6.1274 -7.4784 -0.0087 1 95 120 125
-6.1404 -7.4751 -0.0081 1 95 120 125
-6.1541 -7.4726 -0.0084 1 95 120 125
-6.1676 -7.4698 -0.009 1 95 120 125
-6.1819 -7.4676 -0.009 1 95 120 125
-6.1956 -7.4655 -0.0063 1 95 120 125
-6.202 -7.4541 -0.009 1 95 120 125
-6.2137 -7.449 -0.009 1 95 120 125
-6.2255 -7.4442 -0.0096 1 95 120 125
-6.2395 -7.4419 -0.0066 1 95 120 125
-6.2541 -7.4403 -0.0066 1 95 120 125
-6.2678 -7.4376 -0.0069 1 95 120 125
-6.2804 -7.4335 -0.0069 1 95 120 125
-6.2958 -7.4328 -0.0103 1 95 120 125
-6.3085 -7.4289 -0.0072 1 95 120 125
-6.3225 -7.4264 -0.0069 1 95 120 125
-6.337 -7.4241 -0.0069 1 95 120 125
-6.3506 -7.421 -0.0076 1 95 120 125
-6.3639 -7.4182 -0.0079 1 95 120 125
-6.378 -7.4158 -0.0082 1 95 120 125
-6.3919 -7.4131 -0.0082 1 95 120 125
-6.4054 -7.4099 -0.0082 1 95 120 125
-6.4194 -7.4073 -0.0073 1 95 120 125
-6.4336 -7.4048 -0.0091 1 95 120 125
-6.4473 -7.4017 -0.0082 1 95 120 125
-6.4626 -7.4005 -0.0088 1 95 120 125
-6.4763 -7.3974 -0.0088 1 95 120 125
-6.4898 -7.3935 -0.0082 1 95 120 125
-6.5037 -7.3906 -0.0098 1 95 120 125
-6.5174 -7.3875 -0.0086 1 95 120 125
-6.5324 -7.3857 -0.0095 1 95 120 125
-6.5463 -7.3832 -0.0061 1 95 120 125
-6.5594 -7.3793 -0.0092 1 95 120 125
-6.5739 -7.377 -0.0076 1 95 120 125
-6.5885 -7.3746 -0.0061 1 95 120 125
-6.6029 -7.3716 -0.0101 1 95 120 125
-6.6167 -7.3688 -0.0064 1 95 120 125
-6.6311 -7.3662 -0.0095 1 95 120 125
-6.6442 -7.3622 -0.008 1 95 120 125
-6.6593 -7.3598 -0.0064 1 95 120 125
-6.6739 -7.3578 -0.008 1 95 120 125
-6.689 -7.3558 -0.0068 1 95 120 125
-6.7019 -7.3509 -0.0077 1 95 120 125
-6.7161 -7.3485 -0.0083 1 95 120 125
-6.7297 -7.3448 -0.0071 1 95 120 125
-6.7435 -7.3413 -0.009 1 95 120 125
-6.7592 -7.3399 -0.008 1 95 120 125
-6.7739 -7.3373 -0.008 1 95 120 125
-6.7896 -7.3358 -0.0093 1 95 120 125
-6.8027 -7.3314 -0.0081 1 95 120 125
-6.8148 -7.3259 -0.0093 1 95 120 125
-1.2667 -8.4661 -0.019 1 95 120 125
-4.8237 -7.8553 -0.0184 1 95 120 125
-4.8168 -7.8221 -0.0189 1 95 120 125
-4.8107 -7.7902 -0.0192 1 95 120 125
-4.8122 -7.7702 -0.0186 1 95 120 125
-4.8185 -7.7591 -0.0194 1 95 120 125
-4.8218 -7.7427 -0.0185 1 95 120 125
-4.8273 -7.73 -0.0196 1 95 120 125
-4.8392 -7.7274 -0.0197 1 95 120 125
-5.0471 -7.6891 -0.0193 1 95 120 125
-5.0602 -7.688 -0.0178 1 95 120 125
-5.0742 -7.6883 -0.0187 1 95 120 125
-5.0845 -7.6828 -0.019 1 95 120 125
-5.0954 -7.6783 -0.0193 1 95 120 125
-5.1088 -7.6776 -0.0199 1 95 120 125
-5.1198 -7.6731 -0.0181 1 95 120 125
-5.1318 -7.6702 -0.0193 1 95 120 125
-5.1448 -7.6688 -0.0199 1 95 120 125
-5.157 -7.6656 -0.0196 1 95 120 125
-5.1694 -7.6637 -0.0202 1 95 120 125
-5.1815 -7.6608 -0.0191 1 95 120 125
-5.1983 -7.6649 -0.02 1 95 120 125
-5.2076 -7.658 -0.0208 1 95 120 125
-5.2191 -7.6541 -0.02 1 95 120 125
-5.232 -7.6523 -0.0209 1 95 120 125
-5.2443 -7.6497 -0.0191 1 95 120 125
-5.2571 -7.6478 -0.0209 1 95 120 125
-5.27 -7.6459 -0.0177 1 95 120 125
-5.2829 -7.644 -0.0203 1 95 120 125
-5.2959 -7.6423 -0.0186 1 95 120 125
-5.3202 -7.6362 -0.0183 1 95 120 125
-5.3331 -7.6343 -0.0186 1 95 120 125
-5.3451 -7.6311 -0.021 1 95 120 125
-5.3576 -7.6284 -0.0192 1 95 120 125
-5.3709 -7.627 -0.0184 1 95 120 125
-5.383 -7.6238 -0.0189 1 95 120 125
-5.3956 -7.6214 -0.019 1 95 120 125
-5.4079 -7.6184 -0.0187 1 95 120 125
-5.4208 -7.6162 -0.0193 1 95 120 125
-5.4334 -7.6137 -0.0193 1 95 120 125
-5.4479 -7.6138 -0.0196 1 95 120 125
-5.4603 -7.6109 -0.0196 1 95 120 125
-5.471 -7.6055 -0.0193 1 95 120 125
-5.4846 -7.6043 -0.0202 1 95 120 125
-5.4969 -7.6012 -0.0199 1 95 120 125
-5.5102 -7.5995 -0.0205 1 95 120 125
-5.5232 -7.5972 -0.0197 1 95 120 125
-5.534 -7.592 -0.0203 1 95 120 125
-5.5472 -7.5901 -0.0209 1 95 120 125
-5.5596 -7.587 -0.0206 1 95 120 125
-5.5733 -7.5857 -0.0176 1 95 120 125
-5.5857 -7.5826 -0.0182 1 95 120 125
-5.5988 -7.5804 -0.0206 1 95 120 125
-5.6105 -7.5763 -0.0221 1 95 120 125
-5.625 -7.576 -0.0183 1 95 120 125
-5.6378 -7.5733 -0.0189 1 95 120 125
-5.6501 -7.57 -0.0183 1 95 120 125
-5.6639 -7.5686 -0.0183 1 95 120 125
-5.6755 -7.5642 -0.0195 1 95 120 125
-5.6883 -7.5616 -0.0186 1 95 120 125
-5.7012 -7.5588 -0.0192 1 95 120 125
-5.7174 -7.5605 -0.0195 1 95 120 125
-5.7283 -7.5551 -0.019 1 95 120 125
-5.7416 -7.553 -0.0202 1 95 120 125
-5.7544 -7.5501 -0.0193 1 95 120 125
-5.7685 -7.5489 -0.0202 1 95 120 125
-5.7817 -7.5465 -0.0196 1 95 120 125
-5.7942 -7.5432 -0.0199 1 95 120 125
-5.8067 -7.5398 -0.0205 1 95 120 125
-5.8193 -7.5365 -0.0196 1 95 120 125
-5.8334 -7.5353 -0.0208 1 95 120 125
-5.8465 -7.5325 -0.0203 1 95 120 125
-5.86 -7.5304 -0.0209 1 95 120 125
-5.8729 -7.5275 -0.0209 1 95 120 125
-5.8861 -7.5248 -0.0203 1 95 120 125
-5.8995 -7.5225 -0.0182 1 95 120 125
-5.9135 -7.5209 -0.0209 1 95 120 125
-5.9288 -7.5203 -0.0219 1 95 120 125
-5.9398 -7.5149 -0.0182 1 95 120 125
-5.952 -7.5108 -0.018 1 95 120 125
-5.9668 -7.5107 -0.0192 1 95 120 125
-5.981 -7.5091 -0.0189 1 95 120 125
-5.9932 -7.5045 -0.0195 1 95 120 125
-6.008 -7.5042 -0.0195 1 95 120 125
-6.0196 -7.4994 -0.0186 1 95 120 125
-6.033 -7.4967 -0.0195 1 95 120 125
-6.0469 -7.4947 -0.0193 1 95 120 125
-6.06 -7.4916 -0.0202 1 95 120 125
-6.0723 -7.4876 -0.0199 1 95 120 125
-6.0867 -7.4861 -0.0199 1 95 120 125
-6.1002 -7.4835 -0.0205 1 95 120 125
-6.1144 -7.4817 -0.0202 1 95 120 125
-6.1266 -7.4774 -0.0208 1 95 120 125
-6.1413 -7.4762 -0.0206 1 95 120 125
-6.1544 -7.4729 -0.0206 1 95 120 125
-6.1678 -7.4701 -0.0212 1 95 120 125
-6.1833 -7.4692 -0.0212 1 95 120 125
-6.1952 -7.465 -0.0188 1 95 120 125
-6.2092 -7.4627 -0.0212 1 95 120 125
-6.2156 -7.4513 -0.0212 1 95 120 125
-6.226 -7.4447 -0.0218 1 95 120 125
-6.2406 -7.4432 -0.0188 1 95 120 125
-6.2528 -7.4387 -0.0191 1 95 120 125
-6.2672 -7.4369 -0.0188 1 95 120 125
-6.2801 -7.4332 -0.0191 1 95 120 125
-6.2953 -7.4322 -0.0225 1 95 120 125
-6.3081 -7.4284 -0.0195 1 95 120 125
-6.3225 -7.4264 -0.0192 1 95 120 125
-6.3365 -7.4235 -0.0192 1 95 120 125
-6.3507 -7.4212 -0.0198 1 95 120 125
-6.364 -7.4183 -0.0202 1 95 120 125
-6.3781 -7.4159 -0.0205 1 95 120 125
-6.3916 -7.4127 -0.0205 1 95 120 125
-6.406 -7.4105 -0.0202 1 95 120 125
-6.4191 -7.4069 -0.0199 1 95 120 125
-6.4321 -7.403 -0.0215 1 95 120 125
-6.4464 -7.4007 -0.0205 1 95 120 125
-6.4611 -7.3987 -0.0212 1 95 120 125
-6.4752 -7.3961 -0.0212 1 95 120 125
-6.4899 -7.3937 -0.0206 1 95 120 125
-6.5044 -7.3915 -0.0222 1 95 120 125
-6.5172 -7.3873 -0.0209 1 95 120 125
-6.5322 -7.3856 -0.0219 1 95 120 125
-6.5464 -7.3834 -0.0185 1 95 120 125
-6.5602 -7.3802 -0.0213 1 95 120 125
-6.5729 -7.3758 -0.0198 1 95 120 125
-6.5887 -7.3749 -0.0185 1 95 120 125
-6.6024 -7.3711 -0.0226 1 95 120 125
-6.6159 -7.368 -0.0192 1 95 120 125
-6.6303 -7.3654 -0.022 1 95 120 125
-6.6453 -7.3633 -0.0208 1 95 120 125
-6.6604 -7.361 -0.0189 1 95 120 125
-6.6747 -7.3586 -0.0205 1 95 120 125
-6.6866 -7.3532 -0.0192 1 95 120 125
-6.7012 -7.3503 -0.0205 1 95 120 125
-6.7169 -7.3493 -0.0208 1 95 120 125
-6.7291 -7.3442 -0.0199 1 95 120 125
-6.7437 -7.3415 -0.0215 1 95 120 125
-6.7597 -7.3404 -0.0203 1 95 120 125
-6.7751 -7.3386 -0.0209 1 95 120 125
-6.7886 -7.3347 -0.0222 1 95 120 125
-6.8015 -7.3301 -0.0206 1 95 120 125
-6.8143 -7.3255 -0.0216 1 95 120 125
-1.2668 -8.4668 -0.0297 1 95 120 125
-4.8229 -7.8541 -0.0297 1 95 120 125
-4.8171 -7.8226 -0.0305 1 95 120 125
-4.8097 -7.7886 -0.0309 1 95 120 125
-4.8102 -7.767 -0.03 1 95 120 125
-4.8204 -7.7622 -0.0306 1 95 120 125
-4.8209 -7.7412 -0.03 1 95 120 125
-4.8292 -7.7329 -0.0308 1 95 120 125
-4.8402 -7.729 -0.0311 1 95 120 125
-5.0485 -7.6912 -0.0305 1 95 120 125
-5.0627 -7.6919 -0.0294 1 95 120 125
-5.0734 -7.687 -0.0303 1 95 120 125
-5.0833 -7.681 -0.0306 1 95 120 125
-5.0969 -7.6805 -0.0309 1 95 120 125
-5.1092 -7.6781 -0.0312 1 95 120 125
-5.1214 -7.6755 -0.0297 1 95 120 125
-5.1335 -7.6727 -0.0309 1 95 120 125
-5.1449 -7.6689 -0.0315 1 95 120 125
-5.1575 -7.6664 -0.0312 1 95 120 125
-5.1702 -7.6649 -0.0316 1 95 120 125
-5.183 -7.6631 -0.0307 1 95 120 125
-5.197 -7.6631 -0.0316 1 95 120 125
-5.2088 -7.6597 -0.0325 1 95 120 125
-5.2214 -7.6575 -0.0316 1 95 120 125
-5.2339 -7.6551 -0.0325 1 95 120 125
-5.2459 -7.652 -0.0308 1 95 120 125
-5.2602 -7.6523 -0.0326 1 95 120 125
-5.2715 -7.6481 -0.0294 1 95 120 125
-5.2843 -7.6461 -0.0323 1 95 120 125
-5.2972 -7.6442 -0.0303 1 95 120 125
-5.3217 -7.6384 -0.03 1 95 120 125
-5.3333 -7.6346 -0.03 1 95 120 125
-5.3456 -7.6318 -0.0327 1 95 120 125
-5.3586 -7.6299 -0.0306 1 95 120 125
-5.3709 -7.627 -0.0298 1 95 120 125
-5.3843 -7.6257 -0.0307 1 95 120 125
-5.397 -7.6233 -0.0307 1 95 120 125
-5.4101 -7.6214 -0.0307 1 95 120 125
-5.4215 -7.6173 -0.0313 1 95 120 125
-5.4341 -7.6146 -0.0313 1 95 120 125
-5.448 -7.614 -0.0314 1 95 120 125
-5.4587 -7.6086 -0.0314 1 95 120 125
-5.4722 -7.6072 -0.0311 1 95 120 125
-5.4855 -7.6056 -0.032 1 95 120 125
-5.4987 -7.6037 -0.0317 1 95 120 125
-5.5118 -7.6017 -0.0323 1 95 120 125
-5.5238 -7.5982 -0.0312 1 95 120 125
-5.5364 -7.5953 -0.0321 1 95 120 125
-5.548 -7.5912 -0.0327 1 95 120 125
-5.5602 -7.5879 -0.0324 1 95 120 125
-5.5764 -7.5899 -0.0298 1 95 120 125
-5.5888 -7.5868 -0.0301 1 95 120 125
-5.6004 -7.5826 -0.0325 1 95 120 125
-5.6108 -7.5767 -0.034 1 95 120 125
-5.6242 -7.5748 -0.0301 1 95 120 125
-5.6365 -7.5716 -0.0307 1 95 120 125
-5.6515 -7.5718 -0.0305 1 95 120 125
-5.6643 -7.5692 -0.0302 1 95 120 125
-5.6781 -7.5677 -0.0317 1 95 120 125
-5.6922 -7.5667 -0.0308 1 95 120 125
-5.7049 -7.5637 -0.0311 1 95 120 125
-5.7189 -7.5625 -0.0312 1 95 120 125
-5.7309 -7.5586 -0.0312 1 95 120 125
-5.7455 -7.5582 -0.0321 1 95 120 125
-5.7567 -7.5532 -0.0315 1 95 120 125
-5.7686 -7.549 -0.0321 1 95 120 125
-5.7864 -7.5526 -0.0319 1 95 120 125
-5.7975 -7.5474 -0.0322 1 95 120 125
-5.8107 -7.5451 -0.0325 1 95 120 125
-5.8222 -7.5404 -0.0316 1 95 120 125
-5.8356 -7.538 -0.0331 1 95 120 125
-5.8479 -7.5343 -0.0323 1 95 120 125
-5.8607 -7.5314 -0.0326 1 95 120 125
-5.874 -7.5289 -0.0329 1 95 120 125
-5.8896 -7.5293 -0.032 1 95 120 125
-5.904 -7.5282 -0.0299 1 95 120 125
-5.9159 -7.5239 -0.033 1 95 120 125
-5.9292 -7.5209 -0.0339 1 95 120 125
-5.9418 -7.5174 -0.0303 1 95 120 125
-5.9548 -7.5143 -0.0297 1 95 120 125
-5.968 -7.5121 -0.0312 1 95 120 125
-5.9806 -7.5086 -0.0313 1 95 120 125
-5.9939 -7.5054 -0.0316 1 95 120 125
-6.0088 -7.5052 -0.0316 1 95 120 125
-6.0231 -7.5037 -0.0307 1 95 120 125
-6.037 -7.5017 -0.0317 1 95 120 125
-6.0483 -7.4964 -0.0314 1 95 120 125
-6.0614 -7.4933 -0.0323 1 95 120 125
-6.074 -7.4898 -0.032 1 95 120 125
-6.0875 -7.4872 -0.0317 1 95 120 125
-6.1026 -7.4865 -0.0327 1 95 120 125
-6.1148 -7.4822 -0.0324 1 95 120 125
-6.1273 -7.4782 -0.033 1 95 120 125
-6.1422 -7.4773 -0.0324 1 95 120 125
-6.1576 -7.4768 -0.0325 1 95 120 125
-6.172 -7.4751 -0.0331 1 95 120 125
-6.1844 -7.4705 -0.0334 1 95 120 125
-6.1952 -7.465 -0.0307 1 95 120 125
-6.2087 -7.4621 -0.0334 1 95 120 125
-6.2222 -7.4593 -0.0335 1 95 120 125
-6.2281 -7.4472 -0.034 1 95 120 125
-6.2405 -7.4431 -0.031 1 95 120 125
-6.2535 -7.4395 -0.0313 1 95 120 125
-6.2663 -7.4358 -0.0314 1 95 120 125
-6.2808 -7.434 -0.0314 1 95 120 125
-6.2943 -7.431 -0.0348 1 95 120 125
-6.3082 -7.4285 -0.0317 1 95 120 125
-6.3217 -7.4255 -0.0314 1 95 120 125
-6.3364 -7.4233 -0.0315 1 95 120 125
-6.3508 -7.4213 -0.0321 1 95 120 125
-6.364 -7.4183 -0.0324 1 95 120 125
-6.3769 -7.4145 -0.0328 1 95 120 125
-6.3901 -7.4109 -0.0325 1 95 120 125
-6.4047 -7.409 -0.0328 1 95 120 125
-6.4191 -7.4068 -0.0319 1 95 120 125
-6.434 -7.4053 -0.0338 1 95 120 125
-6.4464 -7.4007 -0.0329 1 95 120 125
-6.4622 -7.4001 -0.0335 1 95 120 125
-6.475 -7.3959 -0.0332 1 95 120 125
-6.489 -7.3927 -0.033 1 95 120 125
-6.5025 -7.3892 -0.0345 1 95 120 125
-6.5168 -7.3868 -0.0333 1 95 120 125
-6.5323 -7.3857 -0.0343 1 95 120 125
-6.5451 -7.3818 -0.0309 1 95 120 125
-6.5599 -7.3798 -0.034 1 95 120 125
-6.5745 -7.3776 -0.0325 1 95 120 125
-6.588 -7.374 -0.0306 1 95 120 125
-6.6027 -7.3714 -0.035 1 95 120 125
-6.6172 -7.3694 -0.0313 1 95 120 125
-6.631 -7.3662 -0.0348 1 95 120 125
-6.6446 -7.3626 -0.0329 1 95 120 125
-6.6602 -7.3608 -0.0314 1 95 120 125
-6.6742 -7.3581 -0.033 1 95 120 125
-6.6873 -7.354 -0.0317 1 95 120 125
-6.7011 -7.3506 -0.0327 1 95 120 125
-6.7157 -7.348 -0.0334 1 95 120 125
-6.7294 -7.3445 -0.0321 1 95 120 125
-6.7444 -7.3423 -0.034 1 95 120 125
-6.7587 -7.3392 -0.0331 1 95 120 125
-6.7739 -7.3373 -0.0331 1 95 120 125
-6.7894 -7.3355 -0.0344 1 95 120 125
-6.8027 -7.3314 -0.0332 1 95 120 125
-6.8155 -7.3268 -0.0345 1 95 120 125
-1.2666 -8.4655 -0.0405 1 95 120 125
-4.8235 -7.8551 -0.0413 1 95 120 125
-4.8168 -7.822 -0.042 1 95 120 125
-4.8102 -7.7894 -0.0422 1 95 120 125
-4.8078 -7.7632 -0.0415 1 95 120 125
-4.8164 -7.7557 -0.0423 1 95 120 125
-4.8167 -7.7345 -0.0414 1 95 120 125
-4.8271 -7.7296 -0.0423 1 95 120 125
-4.84 -7.7286 -0.0426 1 95 120 125
-5.0467 -7.6885 -0.0424 1 95 120 125
-5.0588 -7.6858 -0.0409 1 95 120 125
-5.0706 -7.6828 -0.0418 1 95 120 125
-5.0835 -7.6812 -0.0421 1 95 120 125
-5.0963 -7.6796 -0.0425 1 95 120 125
-5.1081 -7.6765 -0.0431 1 95 120 125
-5.1203 -7.6739 -0.0413 1 95 120 125
-5.1333 -7.6724 -0.0425 1 95 120 125
-5.1453 -7.6695 -0.0431 1 95 120 125
-5.1559 -7.664 -0.0428 1 95 120 125
-5.168 -7.6616 -0.0434 1 95 120 125
-5.1805 -7.6594 -0.0423 1 95 120 125
-5.1939 -7.6585 -0.0432 1 95 120 125
-5.2062 -7.6559 -0.0441 1 95 120 125
-5.2182 -7.6528 -0.0433 1 95 120 125
-5.2323 -7.6528 -0.0442 1 95 120 125
-5.2445 -7.65 -0.0427 1 95 120 125
-5.2588 -7.6502 -0.0442 1 95 120 125
-5.271 -7.6473 -0.041 1 95 120 125
-5.2814 -7.6419 -0.0437 1 95 120 125
-5.2945 -7.6403 -0.0419 1 95 120 125
-5.3189 -7.6345 -0.0417 1 95 120 125
-5.3317 -7.6323 -0.042 1 95 120 125
-5.3453 -7.6313 -0.0444 1 95 120 125
-5.3571 -7.6278 -0.0424 1 95 120 125
-5.3698 -7.6255 -0.0418 1 95 120 125
-5.383 -7.6238 -0.0424 1 95 120 125
-5.3983 -7.6251 -0.0425 1 95 120 125
-5.4087 -7.6195 -0.0422 1 95 120 125
-5.4209 -7.6165 -0.0428 1 95 120 125
-5.434 -7.6145 -0.0428 1 95 120 125
-5.4466 -7.6119 -0.0431 1 95 120 125
-5.4596 -7.6099 -0.0431 1 95 120 125
-5.4729 -7.6082 -0.0429 1 95 120 125
-5.4853 -7.6053 -0.0438 1 95 120 125
-5.4984 -7.6033 -0.0435 1 95 120 125
-5.5114 -7.6011 -0.0441 1 95 120 125
-5.527 -7.6025 -0.0433 1 95 120 125
-5.5373 -7.5966 -0.0439 1 95 120 125
-5.5492 -7.5928 -0.0445 1 95 120 125
-5.5619 -7.5901 -0.0442 1 95 120 125
-5.5742 -7.587 -0.0416 1 95 120 125
-5.5873 -7.5848 -0.0419 1 95 120 125
-5.6006 -7.5829 -0.0443 1 95 120 125
-5.6128 -7.5794 -0.0455 1 95 120 125
-5.6262 -7.5776 -0.042 1 95 120 125
-5.638 -7.5735 -0.0426 1 95 120 125
-5.6544 -7.5757 -0.0421 1 95 120 125
-5.6632 -7.5676 -0.0421 1 95 120 125
-5.6769 -7.5661 -0.0433 1 95 120 125
-5.689 -7.5624 -0.0424 1 95 120 125
-5.702 -7.5599 -0.043 1 95 120 125
-5.7163 -7.5591 -0.0431 1 95 120 125
-5.7293 -7.5565 -0.0428 1 95 120 125
-5.7423 -7.5539 -0.044 1 95 120 125
-5.7549 -7.5507 -0.0431 1 95 120 125
-5.767 -7.547 -0.0441 1 95 120 125
-5.785 -7.5508 -0.0435 1 95 120 125
-5.7946 -7.5437 -0.0438 1 95 120 125
-5.807 -7.5403 -0.0444 1 95 120 125
-5.8205 -7.5381 -0.0436 1 95 120 125
-5.8321 -7.5335 -0.0448 1 95 120 125
-5.846 -7.5319 -0.0442 1 95 120 125
-5.8597 -7.53 -0.0449 1 95 120 125
-5.873 -7.5276 -0.0449 1 95 120 125
-5.8865 -7.5253 -0.0443 1 95 120 125
-5.8994 -7.5224 -0.0422 1 95 120 125
-5.9146 -7.5223 -0.045 1 95 120 125
-5.9276 -7.5188 -0.0459 1 95 120 125
-5.9394 -7.5143 -0.0423 1 95 120 125
-5.9514 -7.5102 -0.042 1 95 120 125
-5.9652 -7.5086 -0.043 1 95 120 125
-5.9782 -7.5056 -0.043 1 95 120 125
-5.993 -7.5043 -0.0433 1 95 120 125
-6.0054 -7.5009 -0.0437 1 95 120 125
-6.0195 -7.4993 -0.0428 1 95 120 125
-6.035 -7.4993 -0.0437 1 95 120 125
-6.0471 -7.495 -0.0435 1 95 120 125
-6.0595 -7.491 -0.0444 1 95 120 125
-6.0725 -7.4879 -0.0441 1 95 120 125
-6.0872 -7.4867 -0.0441 1 95 120 125
-6.1001 -7.4834 -0.0448 1 95 120 125
-6.1138 -7.4809 -0.0445 1 95 120 125
-6.1268 -7.4776 -0.0451 1 95 120 125
-6.1405 -7.4752 -0.0449 1 95 120 125
-6.1543 -7.4728 -0.0449 1 95 120 125
-6.1721 -7.4752 -0.0456 1 95 120 125
-6.1842 -7.4703 -0.0456 1 95 120 125
-6.1972 -7.4674 -0.0432 1 95 120 125
-6.2088 -7.4623 -0.0456 1 95 120 125
-6.2228 -7.46 -0.0457 1 95 120 125
-6.2364 -7.4572 -0.0463 1 95 120 125
-6.2484 -7.4525 -0.0433 1 95 120 125
-6.2578 -7.4447 -0.0433 1 95 120 125
-6.2667 -7.4363 -0.0433 1 95 120 125
-6.2804 -7.4335 -0.0433 1 95 120 125
-6.294 -7.4307 -0.047 1 95 120 125
-6.3087 -7.4291 -0.044 1 95 120 125
-6.3221 -7.426 -0.0437 1 95 120 125
-6.3364 -7.4233 -0.0437 1 95 120 125
-6.3502 -7.4206 -0.0444 1 95 120 125
-6.3627 -7.4168 -0.0447 1 95 120 125
-6.3775 -7.4152 -0.0451 1 95 120 125
-6.3907 -7.4117 -0.0451 1 95 120 125
-6.4051 -7.4095 -0.0448 1 95 120 125
-6.4194 -7.4072 -0.0445 1 95 120 125
-6.4331 -7.4042 -0.0461 1 95 120 125
-6.4464 -7.4007 -0.0452 1 95 120 125
-6.4608 -7.3984 -0.0459 1 95 120 125
-6.4755 -7.3965 -0.0459 1 95 120 125
-6.4891 -7.3928 -0.0453 1 95 120 125
-6.5043 -7.3914 -0.0469 1 95 120 125
-6.5175 -7.3876 -0.0457 1 95 120 125
-6.532 -7.3853 -0.047 1 95 120 125
-6.5458 -7.3826 -0.0433 1 95 120 125
-6.5594 -7.3792 -0.0461 1 95 120 125
-6.5748 -7.3779 -0.0446 1 95 120 125
-6.5893 -7.3755 -0.0434 1 95 120 125
-6.6031 -7.3718 -0.0475 1 95 120 125
-6.6171 -7.3692 -0.0441 1 95 120 125
-6.6303 -7.3653 -0.0469 1 95 120 125
-6.6452 -7.3633 -0.0457 1 95 120 125
-6.6602 -7.3608 -0.0439 1 95 120 125
-6.6727 -7.3564 -0.0454 1 95 120 125
-6.6874 -7.354 -0.0442 1 95 120 125
-6.7 -7.3494 -0.0455 1 95 120 125
-6.7156 -7.3479 -0.0459 1 95 120 125
-6.7289 -7.3439 -0.0446 1 95 120 125
-6.7428 -7.3406 -0.0465 1 95 120 125
-6.7596 -7.3403 -0.0453 1 95 120 125
-6.7752 -7.3387 -0.046 1 95 120 125
-6.7884 -7.3344 -0.0473 1 95 120 125
-6.802 -7.3307 -0.0458 1 95 120 125
-6.8152 -7.3264 -0.0467 1 95 120 125
-1.2667 -8.466 -0.0513 1 95 120 125
-4.8233 -7.8547 -0.0529 1 95 120 125
-4.8171 -7.8226 -0.0536 1 95 120 125
-4.81 -7.7891 -0.054 1 95 120 125
-4.8054 -7.7592 -0.0529 1 95 120 125
-4.8123 -7.7492 -0.0535 1 95 120 125
-4.8171 -7.7351 -0.0529 1 95 120 125
-4.8271 -7.7297 -0.0537 1 95 120 125
-4.8388 -7.7268 -0.054 1 95 120 125
-5.0462 -7.6877 -0.0536 1 95 120 125
-5.0581 -7.6848 -0.0522 1 95 120 125
-5.0709 -7.6832 -0.0534 1 95 120 125
-5.0825 -7.6797 -0.0537 1 95 120 125
-5.0955 -7.6784 -0.054 1 95 120 125
-5.1085 -7.677 -0.0544 1 95 120 125
-5.1207 -7.6744 -0.0529 1 95 120 125
-5.1337 -7.673 -0.0541 1 95 120 125
-5.1446 -7.6685 -0.0547 1 95 120 125
-5.1549 -7.6624 -0.0544 1 95 120 125
-5.1662 -7.659 -0.055 1 95 120 125
-5.1771 -7.6544 -0.0539 1 95 120 125
-5.1916 -7.6551 -0.0548 1 95 120 125
-5.2037 -7.6522 -0.0557 1 95 120 125
-5.2181 -7.6526 -0.0549 1 95 120 125
-5.2298 -7.6491 -0.0558 1 95 120 125
-5.2445 -7.65 -0.0541 1 95 120 125
-5.2577 -7.6486 -0.0562 1 95 120 125
-5.2695 -7.6452 -0.0527 1 95 120 125
-5.2813 -7.6417 -0.0553 1 95 120 125
-5.2937 -7.6391 -0.0533 1 95 120 125
-5.3191 -7.6347 -0.0534 1 95 120 125
-5.332 -7.6328 -0.0534 1 95 120 125
-5.3448 -7.6307 -0.0561 1 95 120 125
-5.3576 -7.6285 -0.0541 1 95 120 125
-5.3702 -7.626 -0.0532 1 95 120 125
-5.3853 -7.6271 -0.0542 1 95 120 125
-5.3993 -7.6266 -0.0542 1 95 120 125
-5.4094 -7.6204 -0.0542 1 95 120 125
-5.4224 -7.6185 -0.0548 1 95 120 125
-5.4344 -7.6151 -0.0549 1 95 120 125
-5.4477 -7.6135 -0.0549 1 95 120 125
-5.4599 -7.6103 -0.0546 1 95 120 125
-5.4729 -7.6082 -0.0547 1 95 120 125
-5.4867 -7.6072 -0.0556 1 95 120 125
-5.4991 -7.6042 -0.0553 1 95 120 125
-5.5115 -7.6012 -0.0559 1 95 120 125
-5.5279 -7.6037 -0.0551 1 95 120 125
-5.5382 -7.5978 -0.0557 1 95 120 125
-5.5501 -7.5941 -0.0563 1 95 120 125
-5.5625 -7.591 -0.0561 1 95 120 125
-5.5756 -7.5888 -0.0534 1 95 120 125
-5.5885 -7.5863 -0.0535 1 95 120 125
-5.6006 -7.5829 -0.0562 1 95 120 125
-5.6128 -7.5794 -0.0577 1 95 120 125
-5.6263 -7.5777 -0.0536 1 95 120 125
-5.6383 -7.5739 -0.0545 1 95 120 125
-5.6559 -7.5776 -0.0543 1 95 120 125
-5.6651 -7.5701 -0.054 1 95 120 125
-5.6776 -7.5671 -0.0555 1 95 120 125
-5.6902 -7.564 -0.0543 1 95 120 125
-5.7028 -7.5609 -0.0549 1 95 120 125
-5.7147 -7.5569 -0.055 1 95 120 125
-5.7285 -7.5555 -0.055 1 95 120 125
-5.7423 -7.5539 -0.0559 1 95 120 125
-5.7557 -7.5518 -0.0551 1 95 120 125
-5.7687 -7.5492 -0.056 1 95 120 125
-5.7844 -7.55 -0.0558 1 95 120 125
-5.7948 -7.544 -0.0561 1 95 120 125
-5.8072 -7.5405 -0.0564 1 95 120 125
-5.8213 -7.5392 -0.0556 1 95 120 125
-5.8342 -7.5363 -0.0571 1 95 120 125
-5.8472 -7.5334 -0.0562 1 95 120 125
-5.8612 -7.532 -0.0566 1 95 120 125
-5.8733 -7.5279 -0.0569 1 95 120 125
-5.887 -7.526 -0.056 1 95 120 125
-5.9 -7.5231 -0.054 1 95 120 125
-5.9152 -7.523 -0.057 1 95 120 125
-5.927 -7.518 -0.0579 1 95 120 125
-5.9388 -7.5136 -0.0544 1 95 120 125
-5.9521 -7.511 -0.0538 1 95 120 125
-5.9654 -7.5089 -0.0553 1 95 120 125
-5.9776 -7.5049 -0.0554 1 95 120 125
-5.9921 -7.5031 -0.0557 1 95 120 125
-6.0051 -7.5006 -0.0557 1 95 120 125
-6.0189 -7.4985 -0.0549 1 95 120 125
-6.0326 -7.4962 -0.0558 1 95 120 125
-6.0491 -7.4974 -0.0556 1 95 120 125
-6.0581 -7.4894 -0.0565 1 95 120 125
-6.0739 -7.4896 -0.0562 1 95 120 125
-6.0856 -7.4847 -0.056 1 95 120 125
-6.1009 -7.4844 -0.0569 1 95 120 125
-6.1136 -7.4806 -0.0566 1 95 120 125
-6.1257 -7.4764 -0.0573 1 95 120 125
-6.14 -7.4746 -0.0567 1 95 120 125
-6.1539 -7.4723 -0.0571 1 95 120 125
-6.1725 -7.4757 -0.0575 1 95 120 125
-6.1858 -7.4722 -0.0578 1 95 120 125
-6.1956 -7.4654 -0.0551 1 95 120 125
-6.209 -7.4625 -0.0578 1 95 120 125
-6.223 -7.4603 -0.0579 1 95 120 125
-6.2357 -7.4563 -0.0585 1 95 120 125
-6.2499 -7.4543 -0.0555 1 95 120 125
-6.2637 -7.4517 -0.0556 1 95 120 125
-6.2669 -7.4366 -0.0558 1 95 120 125
-6.2807 -7.4339 -0.0558 1 95 120 125
-6.2941 -7.4308 -0.0592 1 95 120 125
-6.3074 -7.4276 -0.0562 1 95 120 125
-6.3221 -7.4259 -0.056 1 95 120 125
-6.3365 -7.4234 -0.056 1 95 120 125
-6.3499 -7.4202 -0.0567 1 95 120 125
-6.3633 -7.4175 -0.057 1 95 120 125
-6.3775 -7.4151 -0.0574 1 95 120 125
-6.3925 -7.4138 -0.0574 1 95 120 125
-6.4048 -7.4092 -0.0574 1 95 120 125
-6.419 -7.4068 -0.0565 1 95 120 125
-6.4321 -7.4031 -0.0584 1 95 120 125
-6.4463 -7.4006 -0.0576 1 95 120 125
-6.4605 -7.3981 -0.0582 1 95 120 125
-6.4739 -7.3946 -0.0579 1 95 120 125
-6.4899 -7.3936 -0.0577 1 95 120 125
-6.5043 -7.3913 -0.0593 1 95 120 125
-6.5181 -7.3882 -0.0581 1 95 120 125
-6.5321 -7.3854 -0.0591 1 95 120 125
-6.5467 -7.3836 -0.0557 1 95 120 125
-6.5604 -7.3804 -0.0585 1 95 120 125
-6.5744 -7.3775 -0.0573 1 95 120 125
-6.5879 -7.3739 -0.0558 1 95 120 125
-6.6028 -7.3715 -0.0599 1 95 120 125
-6.6164 -7.3685 -0.0562 1 95 120 125
-6.6302 -7.3652 -0.0594 1 95 120 125
-6.6438 -7.3617 -0.0578 1 95 120 125
-6.6595 -7.36 -0.0563 1 95 120 125
-6.6738 -7.3577 -0.0579 1 95 120 125
-6.6869 -7.3535 -0.0567 1 95 120 125
-6.7006 -7.35 -0.0577 1 95 120 125
-6.7137 -7.3458 -0.0584 1 95 120 125
-6.7301 -7.3452 -0.0572 1 95 120 125
-6.7439 -7.3417 -0.0591 1 95 120 125
-6.7599 -7.3406 -0.0579 1 95 120 125
-6.7734 -7.3367 -0.0582 1 95 120 125
-6.789 -7.3351 -0.0596 1 95 120 125
-6.802 -7.3306 -0.0583 1 95 120 125
-6.8136 -7.3246 -0.0596 1 95 120 125
-1.2667 -8.466 -0.062 1 95 120 125
-4.8235 -7.855 -0.0645 1 95 120 125
-4.8169 -7.8223 -0.0651 1 95 120 125
-4.8096 -7.7884 -0.0652 1 95 120 125
-4.8045 -7.7578 -0.0644 1 95 120 125
-4.8121 -7.7489 -0.0652 1 95 120 125
-4.8188 -7.7379 -0.0643 1 95 120 125
-4.8271 -7.7296 -0.0652 1 95 120 125
-4.8396 -7.728 -0.0655 1 95 120 125
-5.046 -7.6874 -0.0652 1 95 120 125
-5.0588 -7.6859 -0.0641 1 95 120 125
-5.0696 -7.6812 -0.065 1 95 120 125
-5.081 -7.6774 -0.0653 1 95 120 125
-5.0937 -7.6756 -0.0656 1 95 120 125
-5.1083 -7.6767 -0.0662 1 95 120 125
-5.1209 -7.6748 -0.0645 1 95 120 125
-5.1336 -7.6729 -0.0657 1 95 120 125
-5.1443 -7.668 -0.0663 1 95 120 125
-5.1548 -7.6623 -0.066 1 95 120 125
-5.1659 -7.6586 -0.0666 1 95 120 125
-5.1779 -7.6555 -0.0655 1 95 120 125
-5.1917 -7.6551 -0.0664 1 95 120 125
-5.2038 -7.6522 -0.0673 1 95 120 125
-5.2155 -7.6487 -0.0665 1 95 120 125
-5.23 -7.6495 -0.0674 1 95 120 125
-5.2457 -7.6517 -0.0658 1 95 120 125
-5.2591 -7.6506 -0.0676 1 95 120 125
-5.2697 -7.6455 -0.0644 1 95 120 125
-5.3442 -7.6297 -0.0678 1 95 120 125
-5.3588 -7.6301 -0.0658 1 95 120 125
-5.3705 -7.6265 -0.065 1 95 120 125
-5.3832 -7.6241 -0.0659 1 95 120 125
-5.3989 -7.626 -0.0659 1 95 120 125
-5.4091 -7.6201 -0.0657 1 95 120 125
-5.4217 -7.6175 -0.0663 1 95 120 125
-5.4355 -7.6167 -0.0663 1 95 120 125
-5.4482 -7.6141 -0.0667 1 95 120 125
-5.4603 -7.6108 -0.0667 1 95 120 125
-5.4733 -7.6087 -0.0664 1 95 120 125
-5.4862 -7.6065 -0.0674 1 95 120 125
-5.4994 -7.6047 -0.0671 1 95 120 125
-5.5112 -7.6008 -0.0677 1 95 120 125
-5.5278 -7.6036 -0.0669 1 95 120 125
-5.5368 -7.5959 -0.0672 1 95 120 125
-5.5515 -7.596 -0.0682 1 95 120 125
-5.5622 -7.5906 -0.0679 1 95 120 125
-5.5759 -7.5893 -0.065 1 95 120 125
-5.5878 -7.5854 -0.0656 1 95 120 125
-5.6004 -7.5826 -0.068 1 95 120 125
-5.6136 -7.5804 -0.0692 1 95 120 125
-5.6261 -7.5774 -0.0657 1 95 120 125
-5.6387 -7.5744 -0.0663 1 95 120 125
-5.6555 -7.5772 -0.0658 1 95 120 125
-5.6639 -7.5686 -0.0658 1 95 120 125
-5.6768 -7.566 -0.0671 1 95 120 125
-5.6903 -7.5641 -0.0662 1 95 120 125
-5.7039 -7.5624 -0.0669 1 95 120 125
-5.7142 -7.5562 -0.0672 1 95 120 125
-5.7292 -7.5564 -0.0666 1 95 120 125
-5.7423 -7.554 -0.0679 1 95 120 125
-5.7555 -7.5516 -0.067 1 95 120 125
-5.7683 -7.5487 -0.0679 1 95 120 125
-5.7839 -7.5494 -0.0674 1 95 120 125
-5.7945 -7.5436 -0.0677 1 95 120 125
-5.807 -7.5402 -0.0684 1 95 120 125
-5.8212 -7.539 -0.0675 1 95 120 125
-5.8337 -7.5356 -0.0688 1 95 120 125
-5.8473 -7.5336 -0.0682 1 95 120 125
-5.8598 -7.5301 -0.0688 1 95 120 125
-5.8739 -7.5287 -0.0689 1 95 120 125
-5.8866 -7.5255 -0.0683 1 95 120 125
-5.8994 -7.5223 -0.0663 1 95 120 125
-5.9151 -7.5228 -0.069 1 95 120 125
-5.9262 -7.5171 -0.07 1 95 120 125
-5.9399 -7.5149 -0.0664 1 95 120 125
-5.9524 -7.5113 -0.0658 1 95 120 125
-5.9644 -7.5076 -0.0671 1 95 120 125
-5.9789 -7.5064 -0.0671 1 95 120 125
-5.9928 -7.5041 -0.0675 1 95 120 125
-6.0058 -7.5015 -0.0678 1 95 120 125
-6.0188 -7.4983 -0.067 1 95 120 125
-6.0328 -7.4964 -0.0679 1 95 120 125
-6.0489 -7.4972 -0.0677 1 95 120 125
-6.0598 -7.4914 -0.0686 1 95 120 125
-6.0739 -7.4895 -0.0684 1 95 120 125
-6.0867 -7.4861 -0.0681 1 95 120 125
-6.1008 -7.4841 -0.0691 1 95 120 125
-6.1129 -7.4799 -0.0688 1 95 120 125
-6.1246 -7.4749 -0.0694 1 95 120 125
-6.1397 -7.4741 -0.0692 1 95 120 125
-6.1543 -7.4727 -0.0692 1 95 120 125
-6.1725 -7.4757 -0.0699 1 95 120 125
-6.184 -7.4701 -0.07 1 95 120 125
-6.1946 -7.4643 -0.0675 1 95 120 125
-6.2082 -7.4615 -0.07 1 95 120 125
-6.2236 -7.4609 -0.0701 1 95 120 125
-6.2364 -7.4572 -0.0707 1 95 120 125
-6.2498 -7.4541 -0.0677 1 95 120 125
-6.264 -7.452 -0.0678 1 95 120 125
-6.2696 -7.4397 -0.0677 1 95 120 125
-6.2796 -7.4327 -0.0678 1 95 120 125
-6.2947 -7.4315 -0.0715 1 95 120 125
-6.3076 -7.4278 -0.0685 1 95 120 125
-6.3216 -7.4253 -0.0682 1 95 120 125
-6.3361 -7.423 -0.0683 1 95 120 125
-6.3513 -7.4219 -0.0689 1 95 120 125
-6.3633 -7.4175 -0.0693 1 95 120 125
-6.3775 -7.4152 -0.0696 1 95 120 125
-6.3918 -7.4129 -0.0697 1 95 120 125
-6.4041 -7.4083 -0.0694 1 95 120 125
-6.419 -7.4068 -0.0689 1 95 120 125
-6.4326 -7.4036 -0.0708 1 95 120 125
-6.4469 -7.4012 -0.0699 1 95 120 125
-6.4603 -7.3978 -0.0706 1 95 120 125
-6.4743 -7.3951 -0.0706 1 95 120 125
-6.488 -7.3915 -0.07 1 95 120 125
-6.5023 -7.3891 -0.0716 1 95 120 125
-6.5163 -7.3862 -0.0704 1 95 120 125
-6.5327 -7.386 -0.0715 1 95 120 125
-6.5452 -7.382 -0.0678 1 95 120 125
-6.5597 -7.3797 -0.0709 1 95 120 125
-6.5741 -7.3771 -0.0694 1 95 120 125
-6.5878 -7.3738 -0.0682 1 95 120 125
-6.601 -7.3695 -0.0723 1 95 120 125
-6.6161 -7.3682 -0.069 1 95 120 125
-6.6292 -7.3641 -0.0718 1 95 120 125
-6.6453 -7.3634 -0.0706 1 95 120 125
-6.6582 -7.3585 -0.0688 1 95 120 125
-6.673 -7.3568 -0.0701 1 95 120 125
-6.6861 -7.3527 -0.0692 1 95 120 125
-6.7008 -7.3502 -0.0705 1 95 120 125
-6.7139 -7.3461 -0.0709 1 95 120 125
-6.7287 -7.3437 -0.0697 1 95 120 125
-6.7435 -7.3413 -0.0716 1 95 120 125
-6.7591 -7.3397 -0.0704 1 95 120 125
-6.7727 -7.336 -0.0708 1 95 120 125
-6.7886 -7.3347 -0.0724 1 95 120 125
-6.8023 -7.3309 -0.0709 1 95 120 125
-6.8132 -7.3243 -0.0719 1 95 120 125
-1.2667 -8.4663 -0.0728 1 95 120 125
-4.8227 -7.8537 -0.076 1 95 120 125
-4.8162 -7.8212 -0.0767 1 95 120 125
-4.8092 -7.7878 -0.0767 1 95 120 125
-4.8032 -7.7558 -0.0758 1 95 120 125
-4.8109 -7.7469 -0.0764 1 95 120 125
-4.8201 -7.7401 -0.0758 1 95 120 125
-4.8273 -7.7299 -0.0766 1 95 120 125
-4.8392 -7.7274 -0.0769 1 95 120 125
-5.0468 -7.6887 -0.0768 1 95 120 125
-5.059 -7.6862 -0.0756 1 95 120 125
-5.0707 -7.6829 -0.0765 1 95 120 125
-5.0817 -7.6785 -0.0766 1 95 120 125
-5.0942 -7.6764 -0.0772 1 95 120 125
-5.1088 -7.6775 -0.0775 1 95 120 125
-5.1206 -7.6743 -0.0761 1 95 120 125
-5.1345 -7.6742 -0.0771 1 95 120 125
-5.1451 -7.6691 -0.0779 1 95 120 125
-5.1571 -7.6657 -0.0777 1 95 120 125
-5.1685 -7.6623 -0.078 1 95 120 125
-5.1801 -7.6588 -0.0772 1 95 120 125
-5.1932 -7.6574 -0.0781 1 95 120 125
-5.2038 -7.6523 -0.079 1 95 120 125
-5.2171 -7.6511 -0.0782 1 95 120 125
-5.2319 -7.6522 -0.0791 1 95 120 125
-5.2442 -7.6495 -0.0774 1 95 120 125
-5.2581 -7.6492 -0.0792 1 95 120 125
-5.2692 -7.6447 -0.076 1 95 120 125
-5.3068 -7.5966 -0.0765 1 95 120 125
-5.3452 -7.6311 -0.0795 1 95 120 125
-5.3582 -7.6293 -0.0775 1 95 120 125
-5.371 -7.6271 -0.0767 1 95 120 125
-5.385 -7.6266 -0.0776 1 95 120 125
-5.3978 -7.6244 -0.0777 1 95 120 125
-5.409 -7.6199 -0.0777 1 95 120 125
-5.423 -7.6193 -0.078 1 95 120 125
-5.4343 -7.615 -0.0784 1 95 120 125
-5.4478 -7.6136 -0.0784 1 95 120 125
-5.4604 -7.611 -0.0785 1 95 120 125
-5.4737 -7.6093 -0.0782 1 95 120 125
-5.487 -7.6076 -0.0792 1 95 120 125
-5.4997 -7.605 -0.0789 1 95 120 125
-5.5124 -7.6024 -0.0796 1 95 120 125
-5.5268 -7.6022 -0.0784 1 95 120 125
-5.5358 -7.5945 -0.0793 1 95 120 125
-5.5494 -7.593 -0.08 1 95 120 125
-5.5615 -7.5896 -0.0794 1 95 120 125
-5.5754 -7.5886 -0.0771 1 95 120 125
-5.5874 -7.5849 -0.0771 1 95 120 125
-5.601 -7.5833 -0.0796 1 95 120 125
-5.6126 -7.5792 -0.0814 1 95 120 125
-5.6257 -7.5769 -0.0776 1 95 120 125
-5.6385 -7.5742 -0.0782 1 95 120 125
-5.656 -7.5778 -0.078 1 95 120 125
-5.6657 -7.571 -0.0777 1 95 120 125
-5.6778 -7.5673 -0.0793 1 95 120 125
-5.6906 -7.5646 -0.0781 1 95 120 125
-5.7037 -7.5621 -0.0788 1 95 120 125
-5.7168 -7.5597 -0.0788 1 95 120 125
-5.7295 -7.5567 -0.0788 1 95 120 125
-5.7426 -7.5543 -0.0798 1 95 120 125
-5.7554 -7.5514 -0.0789 1 95 120 125
-5.7688 -7.5493 -0.0799 1 95 120 125
-5.7831 -7.5484 -0.0797 1 95 120 125
-5.7945 -7.5435 -0.08 1 95 120 125
-5.8072 -7.5405 -0.0806 1 95 120 125
-5.8206 -7.5382 -0.0795 1 95 120 125
-5.8321 -7.5335 -0.0807 1 95 120 125
-5.8466 -7.5327 -0.0802 1 95 120 125
-5.8603 -7.5307 -0.0805 1 95 120 125
-5.8733 -7.5279 -0.0809 1 95 120 125
-5.8869 -7.5258 -0.08 1 95 120 125
-5.9008 -7.5241 -0.078 1 95 120 125
-5.9143 -7.5219 -0.0811 1 95 120 125
-5.9267 -7.5177 -0.082 1 95 120 125
-5.9393 -7.5141 -0.0784 1 95 120 125
-5.9523 -7.5112 -0.0779 1 95 120 125
-5.9649 -7.5082 -0.0794 1 95 120 125
-5.979 -7.5065 -0.0795 1 95 120 125
-5.9931 -7.5044 -0.0799 1 95 120 125
-6.0055 -7.501 -0.0799 1 95 120 125
-6.0183 -7.4977 -0.079 1 95 120 125
-6.0322 -7.4957 -0.08 1 95 120 125
-6.0482 -7.4963 -0.0798 1 95 120 125
-6.0595 -7.491 -0.0807 1 95 120 125
-6.0736 -7.4891 -0.0805 1 95 120 125
-6.0868 -7.4861 -0.0805 1 95 120 125
-6.1 -7.4832 -0.0812 1 95 120 125
-6.1133 -7.4803 -0.0809 1 95 120 125
-6.1257 -7.4763 -0.0813 1 95 120 125
-6.1387 -7.473 -0.081 1 95 120 125
-6.1525 -7.4707 -0.0811 1 95 120 125
-6.1715 -7.4745 -0.0818 1 95 120 125
-6.1833 -7.4692 -0.0821 1 95 120 125
-6.1959 -7.4658 -0.0794 1 95 120 125
-6.2094 -7.4629 -0.0822 1 95 120 125
-6.2221 -7.4591 -0.0823 1 95 120 125
-6.2355 -7.4561 -0.083 1 95 120 125
-6.2502 -7.4546 -0.08 1 95 120 125
-6.2637 -7.4517 -0.0803 1 95 120 125
-6.2764 -7.4477 -0.0804 1 95 120 125
-6.2802 -7.4333 -0.0803 1 95 120 125
-6.2939 -7.4305 -0.0834 1 95 120 125
-6.3083 -7.4286 -0.0807 1 95 120 125
-6.3227 -7.4266 -0.0805 1 95 120 125
-6.335 -7.4217 -0.0802 1 95 120 125
-6.349 -7.4192 -0.0812 1 95 120 125
-6.3626 -7.4166 -0.0816 1 95 120 125
-6.3769 -7.4145 -0.0819 1 95 120 125
-6.391 -7.412 -0.0817 1 95 120 125
-6.4049 -7.4093 -0.082 1 95 120 125
-6.418 -7.4056 -0.0812 1 95 120 125
-6.4328 -7.4038 -0.0831 1 95 120 125
-6.4471 -7.4015 -0.0822 1 95 120 125
-6.4617 -7.3995 -0.0829 1 95 120 125
-6.4741 -7.3948 -0.0826 1 95 120 125
-6.4891 -7.3927 -0.0824 1 95 120 125
-6.5033 -7.3902 -0.084 1 95 120 125
-6.5174 -7.3874 -0.0828 1 95 120 125
-6.5317 -7.3849 -0.0838 1 95 120 125
-6.5453 -7.3821 -0.0805 1 95 120 125
-6.5601 -7.3801 -0.0833 1 95 120 125
-6.5731 -7.376 -0.0821 1 95 120 125
-6.5877 -7.3738 -0.0804 1 95 120 125
-6.6005 -7.3689 -0.0847 1 95 120 125
-6.6162 -7.3682 -0.0811 1 95 120 125
-6.6313 -7.3664 -0.0843 1 95 120 125
-6.6427 -7.3605 -0.0828 1 95 120 125
-6.6582 -7.3585 -0.0813 1 95 120 125
-6.6717 -7.3553 -0.0829 1 95 120 125
-6.6863 -7.3528 -0.0817 1 95 120 125
-6.7006 -7.35 -0.0827 1 95 120 125
-6.7159 -7.3482 -0.0834 1 95 120 125
-6.7283 -7.3432 -0.0822 1 95 120 125
-6.7433 -7.341 -0.0841 1 95 120 125
-6.7587 -7.3392 -0.083 1 95 120 125
-6.7731 -7.3364 -0.0833 1 95 120 125
-6.789 -7.3351 -0.0847 1 95 120 125
-6.8025 -7.3311 -0.0835 1 95 120 125
-6.813 -7.324 -0.0847 1 95 120 125
-1.2666 -8.4656 -0.0835 1 95 120 125
-4.8231 -7.8544 -0.0876 1 95 120 125
-4.8166 -7.8218 -0.0882 1 95 120 125
-4.8085 -7.7867 -0.0882 1 95 120 125
-4.8027 -7.7549 -0.0873 1 95 120 125
-4.8109 -7.747 -0.0881 1 95 120 125
-4.8199 -7.7397 -0.0873 1 95 120 125
-4.8275 -7.7302 -0.0881 1 95 120 125
-4.8399 -7.7285 -0.0884 1 95 120 125
-5.0464 -7.688 -0.0883 1 95 120 125
-5.0584 -7.6852 -0.0872 1 95 120 125
-5.0707 -7.6828 -0.0881 1 95 120 125
-5.0829 -7.6803 -0.0884 1 95 120 125
-5.0956 -7.6786 -0.0888 1 95 120 125
-5.1078 -7.676 -0.0894 1 95 120 125
-5.1214 -7.6755 -0.0877 1 95 120 125
-5.1338 -7.6732 -0.0889 1 95 120 125
-5.1444 -7.6682 -0.0895 1 95 120 125
-5.1582 -7.6674 -0.0893 1 95 120 125
-5.1696 -7.6639 -0.0899 1 95 120 125
-5.1811 -7.6603 -0.0888 1 95 120 125
-5.1936 -7.658 -0.0894 1 95 120 125
-5.2049 -7.654 -0.0906 1 95 120 125
-5.2186 -7.6533 -0.0898 1 95 120 125
-5.2325 -7.6531 -0.0908 1 95 120 125
-5.2444 -7.6498 -0.0891 1 95 120 125
-5.2587 -7.6501 -0.0909 1 95 120 125
-5.2694 -7.645 -0.0877 1 95 120 125
-5.2815 -7.642 -0.0904 1 95 120 125
-5.2941 -7.6397 -0.0884 1 95 120 125
-5.3186 -7.6339 -0.0885 1 95 120 125
-5.3323 -7.6331 -0.0888 1 95 120 125
-5.3453 -7.6314 -0.0912 1 95 120 125
-5.3589 -7.6304 -0.0892 1 95 120 125
-5.3718 -7.6282 -0.0884 1 95 120 125
-5.3846 -7.626 -0.0893 1 95 120 125
