-4.8842 -7.7779 1.0001 1 49 26 121
-4.8886 -7.7633 0.9984 1 49 26 121
-4.9011 -7.7615 0.9998 1 49 26 121
-4.9132 -7.759 0.9986 1 49 26 121
-4.9256 -7.757 1.002 1 49 26 121
-4.9386 -7.7559 1.0003 1 49 26 121
-4.9503 -7.7522 0.9995 1 49 26 121
-4.9629 -7.751 1.0016 1 49 26 121
-4.9747 -7.748 1.0006 1 49 26 121
-4.9884 -7.7479 1.0046 1 49 26 121
-4.9997 -7.744 1.0017 1 49 26 121
-5.0128 -7.7429 1.0047 1 49 26 121
-5.0257 -7.7415 1.0068 1 49 26 121
-5.0378 -7.7388 1.0031 1 49 26 121
-5.6842 -12.1509 1.4444 1 49 26 121
-5.7006 -12.1462 1.4422 1 49 26 121
-5.7176 -12.1428 1.4405 1 49 26 121
-5.7345 -12.1389 1.4452 1 49 26 121
-5.7513 -12.1352 1.4464 1 49 26 121
-5.6854 -11.9571 1.4244 1 49 26 121
-5.6733 -11.8931 1.4155 1 49 26 121
-5.6611 -11.8294 1.4113 1 49 26 121
-5.6494 -11.7669 1.4042 1 49 26 121
-5.6355 -11.7001 1.3979 1 49 26 121
-5.6228 -11.6364 1.3904 1 49 26 121
-5.6107 -11.5741 1.3858 1 49 26 121
-5.5995 -11.5141 1.377 1 49 26 121
-5.5865 -11.4508 1.3703 1 49 26 121
-5.5741 -11.389 1.3645 1 49 26 121
-5.5618 -11.3271 1.3576 1 49 26 121
-5.5503 -11.2687 1.3514 1 49 26 121
-5.5413 -11.2148 1.3454 1 49 26 121
-5.5295 -11.1556 1.3395 1 49 26 121
-5.5155 -11.0923 1.3327 1 49 26 121
-5.5043 -11.035 1.3251 1 49 26 121
-5.4929 -10.9775 1.3198 1 49 26 121
-5.4813 -10.9201 1.3133 1 49 26 121
-5.4696 -10.8626 1.3073 1 49 26 121
-5.4593 -10.8084 1.3019 1 49 26 121
-5.4479 -10.7522 1.2941 1 49 26 121
-5.4371 -10.6975 1.2929 1 49 26 121
-5.4284 -10.6473 1.2876 1 49 26 121
-5.417 -10.591 1.2821 1 49 26 121
-5.4067 -10.5391 1.2762 1 49 26 121
-5.3977 -10.4892 1.2657 1 49 26 121
-5.3879 -10.4378 1.2648 1 49 26 121
-5.3786 -10.3877 1.2592 1 49 26 121
-5.3679 -10.3353 1.2537 1 49 26 121
-5.3577 -10.2839 1.2486 1 49 26 121
-5.3479 -10.2337 1.243 1 49 26 121
-5.3395 -10.1864 1.238 1 49 26 121
-5.3387 -10.154 1.2338 1 49 26 121
-5.3159 -10.0798 1.2267 1 49 26 121
-5.3049 -10.0283 1.2205 1 49 26 121
-5.2959 -9.981 1.2152 1 49 26 121
-5.2909 -9.9412 1.2123 1 49 26 121
-5.275 -9.8814 1.2044 1 49 26 121
-5.2858 -9.8717 1.2047 1 49 26 121
-5.2917 -9.853 1.2022 1 49 26 121
-5.2871 -9.8149 1.199 1 49 26 121
-5.2796 -9.7715 1.1945 1 49 26 121
-5.2725 -9.7291 1.1895 1 49 26 121
-5.2606 -9.678 1.184 1 49 26 121
-5.2495 -9.6288 1.1785 1 49 26 121
-5.2414 -9.5853 1.1743 1 49 26 121
-5.2318 -9.5384 1.1725 1 49 26 121
-5.2239 -9.4958 1.1632 1 49 26 121
-5.2147 -9.451 1.1626 1 49 26 121
-5.2058 -9.4076 1.1581 1 49 26 121
-5.1978 -9.3653 1.154 1 49 26 121
-5.1623 -9.2738 1.1432 1 49 26 121
-5.1546 -9.232 1.1382 1 49 26 121
-5.1449 -9.1882 1.1339 1 49 26 121
-5.137 -9.147 1.1293 1 49 26 121
-5.1289 -9.1058 1.1253 1 49 26 121
-5.1193 -9.0621 1.1207 1 49 26 121
-5.1121 -9.0228 1.1157 1 49 26 121
-5.1039 -8.982 1.1131 1 49 26 121
-5.0956 -8.9413 1.1069 1 49 26 121
-5.087 -8.9002 1.1035 1 49 26 121
-5.0795 -8.8611 1.0995 1 49 26 121
-5.082 -8.8398 1.096 1 49 26 121
-5.0875 -8.8236 1.0971 1 49 26 121
-5.0839 -8.7911 1.0916 1 49 26 121
-5.0721 -8.7453 1.088 1 49 26 121
-5.0663 -8.7107 1.0838 1 49 26 121
-5.0614 -8.6773 1.0798 1 49 26 121
-5.0544 -8.6403 1.0772 1 49 26 121
-5.0473 -8.6033 1.0718 1 49 26 121
-5.042 -8.569 1.0693 1 49 26 121
-5.0363 -8.5347 1.0649 1 49 26 121
-5.0271 -8.4946 1.0604 1 49 26 121
-5.0206 -8.4594 1.0611 1 49 26 121
-5.0147 -8.4259 1.0565 1 49 26 121
-5.0063 -8.3879 1.0503 1 49 26 121
-4.9965 -8.3469 1.0447 1 49 26 121
-4.9819 -8.2995 1.0423 1 49 26 121
-4.9827 -8.2767 1.0412 1 49 26 121
-4.9734 -8.2383 1.0362 1 49 26 121
-4.9681 -8.2062 1.0308 1 49 26 121
-4.961 -8.1713 1.0288 1 49 26 121
-4.9559 -8.1398 1.0256 1 49 26 121
-4.9478 -8.1035 1.0224 1 49 26 121
-4.9418 -8.0709 1.0187 1 49 26 121
-4.9343 -8.0354 1.0154 1 49 26 121
-4.9257 -7.9988 1.0109 1 49 26 121
-4.9209 -7.9686 1.0076 1 49 26 121
-4.9138 -7.9348 1.0047 1 49 26 121
-4.9084 -7.9039 1.0007 1 49 26 121
-4.9021 -7.8721 0.998 1 49 26 121
-4.8956 -7.8398 0.9938 1 49 26 121
-4.8887 -7.8069 0.9907 1 49 26 121
-4.8834 -7.7766 0.9882 1 49 26 121
-4.8889 -7.7637 0.9865 1 49 26 121
-4.901 -7.7612 0.9884 1 49 26 121
-4.9135 -7.7595 0.9869 1 49 26 121
-4.9261 -7.7577 0.9907 1 49 26 121
-4.9375 -7.7541 0.9884 1 49 26 121
-4.9507 -7.7528 0.9882 1 49 26 121
-4.9635 -7.7519 0.99 1 49 26 121
-4.9748 -7.7481 0.9892 1 49 26 121
-4.9866 -7.745 0.9925 1 49 26 121
-4.9998 -7.7441 0.99 1 49 26 121
-5.0123 -7.7422 0.9929 1 49 26 121
-5.0247 -7.74 0.9951 1 49 26 121
-5.0372 -7.738 0.9913 1 49 26 121
-5.6835 -12.1494 1.4272 1 49 26 121
-5.7015 -12.1482 1.4249 1 49 26 121
-5.7175 -12.1425 1.4238 1 49 26 121
-5.7342 -12.1383 1.428 1 49 26 121
-5.7503 -12.1329 1.4291 1 49 26 121
-5.6851 -11.9565 1.4079 1 49 26 121
-5.6733 -11.8931 1.3987 1 49 26 121
-5.6612 -11.8295 1.3946 1 49 26 121
-5.6487 -11.7653 1.3875 1 49 26 121
-5.6362 -11.7017 1.3816 1 49 26 121
-5.6233 -11.6374 1.374 1 49 26 121
-5.6103 -11.5733 1.3689 1 49 26 121
-5.5988 -11.5128 1.3606 1 49 26 121
-5.5871 -11.4521 1.3542 1 49 26 121
-5.5738 -11.3885 1.3484 1 49 26 121
-5.5614 -11.3261 1.341 1 49 26 121
-5.5497 -11.2675 1.3357 1 49 26 121
-5.5419 -11.216 1.3296 1 49 26 121
-5.5276 -11.1518 1.3228 1 49 26 121
-5.515 -11.0913 1.3172 1 49 26 121
-5.5035 -11.0333 1.3096 1 49 26 121
-5.4917 -10.9752 1.3039 1 49 26 121
-5.4801 -10.9175 1.2975 1 49 26 121
-5.4694 -10.8621 1.2917 1 49 26 121
-5.4593 -10.8084 1.2866 1 49 26 121
-5.4492 -10.7548 1.2787 1 49 26 121
-5.438 -10.6993 1.2779 1 49 26 121
-5.427 -10.6444 1.2721 1 49 26 121
-5.4164 -10.59 1.2668 1 49 26 121
-5.4074 -10.5405 1.2613 1 49 26 121
-5.3983 -10.4902 1.2509 1 49 26 121
-5.3898 -10.4414 1.2507 1 49 26 121
-5.3784 -10.3874 1.2443 1 49 26 121
-5.3682 -10.3359 1.2389 1 49 26 121
-5.3584 -10.2853 1.2341 1 49 26 121
-5.3488 -10.2355 1.2285 1 49 26 121
-5.3407 -10.1887 1.2237 1 49 26 121
-5.3276 -10.1327 1.2167 1 49 26 121
-5.3147 -10.0774 1.2119 1 49 26 121
-5.3055 -10.0295 1.2059 1 49 26 121
-5.2972 -9.9834 1.2012 1 49 26 121
-5.2852 -9.9306 1.1967 1 49 26 121
-5.2759 -9.8832 1.1903 1 49 26 121
-5.2819 -9.8645 1.1892 1 49 26 121
-5.2914 -9.8525 1.1879 1 49 26 121
-5.2858 -9.8124 1.1846 1 49 26 121
-5.2773 -9.7672 1.1803 1 49 26 121
-5.2687 -9.7221 1.1742 1 49 26 121
-5.2632 -9.6828 1.1706 1 49 26 121
-5.2514 -9.6323 1.1649 1 49 26 121
-5.2418 -9.586 1.1608 1 49 26 121
-5.2318 -9.5385 1.159 1 49 26 121
-5.2229 -9.4939 1.1496 1 49 26 121
-5.2143 -9.4501 1.1488 1 49 26 121
-5.2076 -9.4108 1.1452 1 49 26 121
-5.1976 -9.3649 1.1404 1 49 26 121
-5.1658 -9.2801 1.1305 1 49 26 121
-5.1545 -9.2318 1.1248 1 49 26 121
-5.1453 -9.1889 1.1206 1 49 26 121
-5.137 -9.1471 1.116 1 49 26 121
-5.1271 -9.1026 1.1113 1 49 26 121
-5.1203 -9.0638 1.1081 1 49 26 121
-5.1132 -9.0247 1.1031 1 49 26 121
-5.1038 -8.9818 1.0999 1 49 26 121
-5.0954 -8.9409 1.0941 1 49 26 121
-5.0862 -8.8988 1.0903 1 49 26 121
-5.0783 -8.859 1.0862 1 49 26 121
-5.0861 -8.8469 1.0843 1 49 26 121
-5.0878 -8.8242 1.0839 1 49 26 121
-5.0803 -8.7849 1.0776 1 49 26 121
-5.0737 -8.7481 1.0751 1 49 26 121
-5.0674 -8.7126 1.0712 1 49 26 121
-5.0619 -8.6781 1.0668 1 49 26 121
-5.054 -8.6395 1.0644 1 49 26 121
-5.0483 -8.6051 1.0594 1 49 26 121
-5.0411 -8.5674 1.0565 1 49 26 121
-5.0346 -8.5319 1.0523 1 49 26 121
-5.0263 -8.4934 1.0477 1 49 26 121
-5.0195 -8.4576 1.0481 1 49 26 121
-5.0159 -8.428 1.0442 1 49 26 121
-5.007 -8.389 1.0377 1 49 26 121
-4.9998 -8.3524 1.0331 1 49 26 121
-4.9773 -8.2919 1.0291 1 49 26 121
-4.9793 -8.271 1.0285 1 49 26 121
-4.9713 -8.2349 1.0239 1 49 26 121
-4.9678 -8.2058 1.0189 1 49 26 121
-4.9627 -8.174 1.0169 1 49 26 121
-4.9576 -8.1426 1.0141 1 49 26 121
-4.947 -8.1023 1.0105 1 49 26 121
-4.9423 -8.0717 1.0071 1 49 26 121
-4.9362 -8.0386 1.0041 1 49 26 121
-4.9286 -8.0035 0.9996 1 49 26 121
-4.9207 -7.9683 0.9957 1 49 26 121
-4.9141 -7.9352 0.9929 1 49 26 121
-4.9081 -7.9034 0.9888 1 49 26 121
-4.9029 -7.8735 0.9867 1 49 26 121
-4.8968 -7.8417 0.9826 1 49 26 121
-4.8894 -7.8079 0.9788 1 49 26 121
-4.8819 -7.7742 0.9763 1 49 26 121
-4.8887 -7.7634 0.9751 1 49 26 121
-4.9002 -7.76 0.9763 1 49 26 121
-4.9128 -7.7584 0.9751 1 49 26 121
-4.9258 -7.7573 0.9787 1 49 26 121
-4.9385 -7.7557 0.9769 1 49 26 121
-4.9501 -7.752 0.9761 1 49 26 121
-4.9628 -7.7508 0.9785 1 49 26 121
-4.975 -7.7485 0.9775 1 49 26 121
-4.9878 -7.7469 0.981 1 49 26 121
-4.9999 -7.7443 0.9783 1 49 26 121
-5.0124 -7.7423 0.9812 1 49 26 121
-5.0248 -7.7401 0.9831 1 49 26 121
-5.0374 -7.7382 0.9796 1 49 26 121
-5.6845 -12.1516 1.4104 1 49 26 121
-5.7011 -12.1471 1.4082 1 49 26 121
-5.7174 -12.1423 1.4068 1 49 26 121
-5.7349 -12.1398 1.4111 1 49 26 121
-5.7511 -12.1347 1.4122 1 49 26 121
-5.6841 -11.9545 1.3904 1 49 26 121
-5.6725 -11.8915 1.3818 1 49 26 121
-5.6612 -11.8295 1.3779 1 49 26 121
-5.6485 -11.7648 1.3708 1 49 26 121
-5.6356 -11.7003 1.365 1 49 26 121
-5.6229 -11.6366 1.3575 1 49 26 121
-5.6109 -11.5745 1.3532 1 49 26 121
-5.599 -11.5131 1.344 1 49 26 121
-5.5869 -11.4517 1.338 1 49 26 121
-5.5746 -11.3902 1.3324 1 49 26 121
-5.5608 -11.3257 1.3249 1 49 26 121
-5.5509 -11.2698 1.3196 1 49 26 121
-5.5411 -11.2144 1.3135 1 49 26 121
-5.5281 -11.1526 1.3075 1 49 26 121
-5.5151 -11.0913 1.3011 1 49 26 121
-5.5038 -11.0338 1.2936 1 49 26 121
-5.4918 -10.9754 1.2884 1 49 26 121
-5.4804 -10.9182 1.2821 1 49 26 121
-5.4699 -10.8633 1.2764 1 49 26 121
-5.4599 -10.8095 1.2713 1 49 26 121
-5.45 -10.7563 1.2639 1 49 26 121
-5.4384 -10.7001 1.2627 1 49 26 121
-5.4273 -10.6451 1.257 1 49 26 121
-5.4178 -10.5927 1.252 1 49 26 121
-5.4073 -10.5403 1.2462 1 49 26 121
-5.3986 -10.4907 1.2359 1 49 26 121
-5.3881 -10.4381 1.235 1 49 26 121
-5.3786 -10.3878 1.2295 1 49 26 121
-5.3684 -10.3362 1.2242 1 49 26 121
-5.3574 -10.2834 1.2191 1 49 26 121
-5.3477 -10.2333 1.2136 1 49 26 121
-5.3403 -10.188 1.209 1 49 26 121
-5.3274 -10.1323 1.2017 1 49 26 121
-5.3171 -10.082 1.198 1 49 26 121
-5.3063 -10.031 1.192 1 49 26 121
-5.297 -9.983 1.1867 1 49 26 121
-5.2865 -9.933 1.1827 1 49 26 121
-5.2785 -9.888 1.1767 1 49 26 121
-5.2761 -9.8538 1.1741 1 49 26 121
-5.2845 -9.8396 1.1721 1 49 26 121
-5.2874 -9.8154 1.1707 1 49 26 121
-5.2777 -9.768 1.1659 1 49 26 121
-5.2727 -9.7296 1.1614 1 49 26 121
-5.2593 -9.6757 1.1557 1 49 26 121
-5.2511 -9.6318 1.1509 1 49 26 121
-5.2414 -9.5852 1.1465 1 49 26 121
-5.2336 -9.5418 1.1456 1 49 26 121
-5.2238 -9.4957 1.1357 1 49 26 121
-5.2139 -9.4494 1.1347 1 49 26 121
-5.2073 -9.4103 1.1311 1 49 26 121
-5.1978 -9.3653 1.1272 1 49 26 121
-5.1881 -9.3202 1.1218 1 49 26 121
-5.1545 -9.2318 1.1113 1 49 26 121
-5.1466 -9.1911 1.1075 1 49 26 121
-5.1341 -9.1418 1.102 1 49 26 121
-5.1268 -9.102 1.0983 1 49 26 121
-5.1209 -9.0648 1.0946 1 49 26 121
-5.1126 -9.0238 1.0895 1 49 26 121
-5.1043 -8.9827 1.0869 1 49 26 121
-5.0954 -8.9409 1.0807 1 49 26 121
-5.0861 -8.8986 1.077 1 49 26 121
-5.079 -8.8603 1.0734 1 49 26 121
-5.0905 -8.8545 1.0719 1 49 26 121
-5.0875 -8.8236 1.0712 1 49 26 121
-5.0825 -8.7887 1.0655 1 49 26 121
-5.0756 -8.7514 1.063 1 49 26 121
-5.0693 -8.7159 1.0588 1 49 26 121
-5.0617 -8.6778 1.0543 1 49 26 121
-5.0553 -8.6419 1.052 1 49 26 121
-5.047 -8.6027 1.0464 1 49 26 121
-5.0408 -8.5669 1.0438 1 49 26 121
-5.036 -8.5342 1.0396 1 49 26 121
-5.0249 -8.491 1.0348 1 49 26 121
-5.0188 -8.4565 1.0358 1 49 26 121
-5.0075 -8.4138 1.0301 1 49 26 121
-5.0072 -8.3893 1.0257 1 49 26 121
-4.9992 -8.3515 1.0206 1 49 26 121
-4.9846 -8.304 1.0183 1 49 26 121
-4.9812 -8.2742 1.0163 1 49 26 121
-4.9762 -8.2429 1.0123 1 49 26 121
-4.9674 -8.2051 1.0063 1 49 26 121
-4.9636 -8.1755 1.005 1 49 26 121
-4.9571 -8.1419 1.0016 1 49 26 121
-4.949 -8.1055 0.9985 1 49 26 121
-4.9437 -8.074 0.9951 1 49 26 121
-4.9354 -8.0373 0.9916 1 49 26 121
-4.929 -8.0042 0.9877 1 49 26 121
-4.9213 -7.9692 0.9839 1 49 26 121
-4.9142 -7.9354 0.9811 1 49 26 121
-4.9093 -7.9052 0.9772 1 49 26 121
-4.902 -7.872 0.9747 1 49 26 121
-4.8958 -7.8401 0.9704 1 49 26 121
-4.8886 -7.8066 0.9673 1 49 26 121
-4.8824 -7.775 0.9647 1 49 26 121
-4.8882 -7.7625 0.963 1 49 26 121
-4.901 -7.7613 0.9651 1 49 26 121
-4.913 -7.7586 0.9635 1 49 26 121
-4.9259 -7.7574 0.9673 1 49 26 121
-4.9374 -7.754 0.965 1 49 26 121
-4.9505 -7.7525 0.9648 1 49 26 121
-4.9629 -7.751 0.9665 1 49 26 121
-4.9747 -7.748 0.9657 1 49 26 121
-4.9873 -7.7462 0.9692 1 49 26 121
-4.9996 -7.7439 0.9665 1 49 26 121
-5.0124 -7.7424 0.9694 1 49 26 121
-5.0254 -7.7411 0.9718 1 49 26 121
-5.0367 -7.7371 0.9677 1 49 26 121
-5.6846 -12.1517 1.3934 1 49 26 121
-5.7004 -12.1459 1.391 1 49 26 121
-5.7184 -12.1443 1.3899 1 49 26 121
-5.7345 -12.139 1.394 1 49 26 121
-5.7516 -12.1357 1.3953 1 49 26 121
-5.6852 -11.9566 1.3743 1 49 26 121
-5.6713 -11.8889 1.3648 1 49 26 121
-5.6611 -11.8292 1.3612 1 49 26 121
-5.6482 -11.7643 1.3542 1 49 26 121
-5.634 -11.6971 1.3481 1 49 26 121
-5.6204 -11.6313 1.3405 1 49 26 121
-5.6104 -11.5736 1.3363 1 49 26 121
-5.5989 -11.5129 1.3281 1 49 26 121
-5.5868 -11.4513 1.3218 1 49 26 121
-5.5742 -11.3893 1.3162 1 49 26 121
-5.5609 -11.326 1.3089 1 49 26 121
-5.5491 -11.2661 1.3036 1 49 26 121
-5.5407 -11.2136 1.2975 1 49 26 121
-5.5272 -11.1508 1.2911 1 49 26 121
-5.5143 -11.0899 1.2856 1 49 26 121
-5.503 -11.0323 1.2782 1 49 26 121
-5.4917 -10.9751 1.2727 1 49 26 121
-5.4799 -10.9173 1.2664 1 49 26 121
-5.4712 -10.8658 1.2613 1 49 26 121
-5.4602 -10.81 1.256 1 49 26 121
-5.4488 -10.7539 1.2479 1 49 26 121
-5.439 -10.7011 1.2476 1 49 26 121
-5.4283 -10.6471 1.2421 1 49 26 121
-5.417 -10.5912 1.2367 1 49 26 121
-5.4075 -10.5406 1.2316 1 49 26 121
-5.3981 -10.4899 1.2209 1 49 26 121
-5.3876 -10.4371 1.2203 1 49 26 121
-5.3791 -10.3887 1.2147 1 49 26 121
-5.3695 -10.3383 1.2096 1 49 26 121
-5.3591 -10.2865 1.2047 1 49 26 121
-5.3497 -10.2371 1.1994 1 49 26 121
-5.3408 -10.1889 1.1945 1 49 26 121
-5.329 -10.1354 1.1879 1 49 26 121
-5.3177 -10.0831 1.1837 1 49 26 121
-5.3062 -10.0307 1.1772 1 49 26 121
-5.2966 -9.9823 1.1723 1 49 26 121
-5.2878 -9.9355 1.1687 1 49 26 121
-5.28 -9.8909 1.1628 1 49 26 121
-5.2737 -9.8492 1.1594 1 49 26 121
-5.2856 -9.8417 1.1582 1 49 26 121
-5.2873 -9.8152 1.1566 1 49 26 121
-5.2788 -9.77 1.1524 1 49 26 121
-5.2688 -9.7222 1.1461 1 49 26 121
-5.2596 -9.6762 1.1418 1 49 26 121
-5.2512 -9.632 1.137 1 49 26 121
-5.2413 -9.5851 1.133 1 49 26 121
-5.2332 -9.5411 1.1317 1 49 26 121
-5.2222 -9.4926 1.1219 1 49 26 121
-5.214 -9.4496 1.1213 1 49 26 121
-5.2076 -9.4107 1.1178 1 49 26 121
-5.1968 -9.3635 1.1133 1 49 26 121
-5.1881 -9.3202 1.1083 1 49 26 121
-5.1751 -9.2686 1.1023 1 49 26 121
-5.1456 -9.1894 1.0943 1 49 26 121
-5.1341 -9.1418 1.0887 1 49 26 121
-5.1262 -9.101 1.0846 1 49 26 121
-5.1207 -9.0646 1.0817 1 49 26 121
-5.1137 -9.0257 1.0768 1 49 26 121
-5.1051 -8.9842 1.074 1 49 26 121
-5.0963 -8.9425 1.0681 1 49 26 121
-5.0868 -8.8997 1.0644 1 49 26 121
-5.0814 -8.8645 1.061 1 49 26 121
-5.0928 -8.8585 1.0597 1 49 26 121
-5.0873 -8.8232 1.0579 1 49 26 121
-5.0837 -8.7908 1.0525 1 49 26 121
-5.0767 -8.7534 1.0504 1 49 26 121
-5.0701 -8.7173 1.0462 1 49 26 121
-5.0615 -8.6774 1.0415 1 49 26 121
-5.0545 -8.6404 1.0391 1 49 26 121
-5.046 -8.6011 1.0339 1 49 26 121
-5.0406 -8.5666 1.0311 1 49 26 121
-5.0369 -8.5357 1.0275 1 49 26 121
-5.0271 -8.4947 1.0227 1 49 26 121
-5.02 -8.4585 1.0232 1 49 26 121
-5.0098 -8.4177 1.0181 1 49 26 121
-5.0043 -8.3845 1.0127 1 49 26 121
-4.9957 -8.3457 1.0075 1 49 26 121
-4.9906 -8.314 1.0072 1 49 26 121
-4.9826 -8.2765 1.0047 1 49 26 121
-4.9767 -8.2438 1.0005 1 49 26 121
-4.9693 -8.2082 0.9948 1 49 26 121
-4.9635 -8.1754 0.9928 1 49 26 121
-4.957 -8.1415 0.9898 1 49 26 121
-4.9501 -8.1073 0.987 1 49 26 121
-4.9422 -8.0716 0.9831 1 49 26 121
-4.935 -8.0365 0.9799 1 49 26 121
-4.93 -8.0058 0.976 1 49 26 121
-4.9215 -7.9696 0.972 1 49 26 121
-4.9147 -7.9361 0.9693 1 49 26 121
-4.9082 -7.9036 0.9652 1 49 26 121
-4.902 -7.872 0.9629 1 49 26 121
-4.8952 -7.8392 0.9588 1 49 26 121
-4.889 -7.8073 0.9553 1 49 26 121
-4.8815 -7.7737 0.9529 1 49 26 121
-4.888 -7.7623 0.9516 1 49 26 121
-4.9004 -7.7602 0.953 1 49 26 121
-4.9139 -7.76 0.952 1 49 26 121
-4.9258 -7.7573 0.9553 1 49 26 121
-4.9379 -7.7548 0.9535 1 49 26 121
-4.951 -7.7533 0.9529 1 49 26 121
-4.9621 -7.7497 0.9547 1 49 26 121
-4.9753 -7.7488 0.9541 1 49 26 121
-4.9867 -7.7453 0.9574 1 49 26 121
-5.0003 -7.7449 0.9549 1 49 26 121
-5.0124 -7.7422 0.9577 1 49 26 121
-5.0248 -7.7402 0.96 1 49 26 121
-5.0365 -7.7368 0.956 1 49 26 121
-5.6842 -12.151 1.3763 1 49 26 121
-5.7013 -12.1477 1.3742 1 49 26 121
-5.7183 -12.1442 1.3729 1 49 26 121
-5.7348 -12.1397 1.377 1 49 26 121
-5.751 -12.1344 1.3781 1 49 26 121
-5.6893 -11.9652 1.358 1 49 26 121
-5.6718 -11.89 1.3482 1 49 26 121
-5.6601 -11.8271 1.3444 1 49 26 121
-5.6475 -11.7629 1.3375 1 49 26 121
-5.6341 -11.6973 1.3316 1 49 26 121
-5.6223 -11.6352 1.3245 1 49 26 121
-5.6099 -11.5725 1.3202 1 49 26 121
-5.599 -11.5131 1.3118 1 49 26 121
-5.5868 -11.4514 1.3056 1 49 26 121
-5.5751 -11.3911 1.3003 1 49 26 121
-5.5616 -11.3273 1.2931 1 49 26 121
-5.5509 -11.2697 1.2877 1 49 26 121
-5.5399 -11.2119 1.2815 1 49 26 121
-5.527 -11.1505 1.2756 1 49 26 121
-5.5149 -11.0909 1.2696 1 49 26 121
-5.5031 -11.0324 1.2621 1 49 26 121
-5.493 -10.9778 1.2575 1 49 26 121
-5.4803 -10.918 1.251 1 49 26 121
-5.4712 -10.8658 1.2458 1 49 26 121
-5.4612 -10.8121 1.2408 1 49 26 121
-5.4506 -10.7574 1.2334 1 49 26 121
-5.44 -10.7031 1.2326 1 49 26 121
-5.4288 -10.648 1.227 1 49 26 121
-5.4178 -10.5927 1.2218 1 49 26 121
-5.4084 -10.5423 1.2164 1 49 26 121
-5.3987 -10.4911 1.206 1 49 26 121
-5.388 -10.438 1.2052 1 49 26 121
-5.3792 -10.3888 1.1999 1 49 26 121
-5.3697 -10.3386 1.1949 1 49 26 121
-5.3593 -10.2869 1.19 1 49 26 121
-5.3495 -10.2368 1.1847 1 49 26 121
-5.3418 -10.1909 1.1801 1 49 26 121
-5.3294 -10.1361 1.1735 1 49 26 121
-5.3184 -10.0845 1.1693 1 49 26 121
-5.3056 -10.0297 1.163 1 49 26 121
-5.2972 -9.9833 1.1581 1 49 26 121
-5.2892 -9.9381 1.1547 1 49 26 121
-5.2801 -9.8909 1.1485 1 49 26 121
-5.2708 -9.8438 1.1445 1 49 26 121
-5.2832 -9.8372 1.1435 1 49 26 121
-5.2864 -9.8135 1.1422 1 49 26 121
-5.2791 -9.7705 1.138 1 49 26 121
-5.2681 -9.721 1.1323 1 49 26 121
-5.2587 -9.6746 1.1277 1 49 26 121
-5.2502 -9.63 1.1229 1 49 26 121
-5.2399 -9.5825 1.1184 1 49 26 121
-5.2323 -9.5394 1.1177 1 49 26 121
-5.2211 -9.4906 1.1079 1 49 26 121
-5.2127 -9.4472 1.1074 1 49 26 121
-5.2058 -9.4076 1.1038 1 49 26 121
-5.1965 -9.363 1.0997 1 49 26 121
-5.1888 -9.3215 1.0949 1 49 26 121
-5.1773 -9.2725 1.0892 1 49 26 121
-5.1491 -9.1957 1.0813 1 49 26 121
-5.1371 -9.1472 1.076 1 49 26 121
-5.1249 -9.0986 1.0714 1 49 26 121
-5.1204 -9.064 1.0684 1 49 26 121
-5.114 -9.0261 1.0634 1 49 26 121
-5.1049 -8.9837 1.0608 1 49 26 121
-5.0955 -8.9411 1.0545 1 49 26 121
-5.0868 -8.8997 1.0514 1 49 26 121
-5.0859 -8.8723 1.0489 1 49 26 121
-5.0957 -8.8636 1.0473 1 49 26 121
-5.087 -8.8226 1.0452 1 49 26 121
-5.0844 -8.792 1.0401 1 49 26 121
-5.0781 -8.7557 1.0378 1 49 26 121
-5.0699 -8.717 1.0333 1 49 26 121
-5.0606 -8.6759 1.0286 1 49 26 121
-5.0521 -8.6364 1.0259 1 49 26 121
-5.0483 -8.605 1.0214 1 49 26 121
-5.0406 -8.5665 1.0185 1 49 26 121
-5.0339 -8.5307 1.0141 1 49 26 121
-5.0242 -8.4899 1.0096 1 49 26 121
-5.0176 -8.4543 1.0105 1 49 26 121
-5.0106 -8.4191 1.0058 1 49 26 121
-5.002 -8.3807 0.9998 1 49 26 121
-4.9962 -8.3464 0.9952 1 49 26 121
-4.9904 -8.3137 0.9948 1 49 26 121
-4.9836 -8.2782 0.9923 1 49 26 121
-4.9762 -8.2429 0.9879 1 49 26 121
-4.9701 -8.2095 0.9825 1 49 26 121
-4.9629 -8.1745 0.9809 1 49 26 121
-4.956 -8.1399 0.9772 1 49 26 121
-4.9495 -8.1063 0.9745 1 49 26 121
-4.9411 -8.0698 0.9705 1 49 26 121
-4.9342 -8.0353 0.9674 1 49 26 121
-4.9297 -8.0053 0.964 1 49 26 121
-4.9205 -7.968 0.9599 1 49 26 121
-4.9136 -7.9344 0.9572 1 49 26 121
-4.9085 -7.904 0.9534 1 49 26 121
-4.9021 -7.8721 0.9512 1 49 26 121
-4.8948 -7.8384 0.9467 1 49 26 121
-4.8911 -7.8106 0.9443 1 49 26 121
-4.881 -7.7728 0.9411 1 49 26 121
-4.888 -7.7622 0.9397 1 49 26 121
-4.9004 -7.7604 0.9417 1 49 26 121
-4.9134 -7.7593 0.9402 1 49 26 121
-4.9255 -7.7568 0.9439 1 49 26 121
-4.9376 -7.7542 0.9417 1 49 26 121
-4.9503 -7.7528 0.9414 1 49 26 121
-4.9634 -7.7517 0.9432 1 49 26 121
-4.9753 -7.7488 0.9425 1 49 26 121
-4.9878 -7.7469 0.9459 1 49 26 121
-4.9989 -7.7427 0.9429 1 49 26 121
-5.0115 -7.7409 0.9458 1 49 26 121
-5.0251 -7.7406 0.9483 1 49 26 121
-5.038 -7.739 0.9445 1 49 26 121
-5.6847 -12.1519 1.3594 1 49 26 121
-5.7011 -12.1473 1.3571 1 49 26 121
-5.7177 -12.1428 1.3557 1 49 26 121
-5.735 -12.1401 1.36 1 49 26 121
-5.7521 -12.1367 1.3613 1 49 26 121
-5.71 -12.0088 1.3465 1 49 26 121
-5.6716 -11.8895 1.3314 1 49 26 121
-5.6588 -11.8245 1.3274 1 49 26 121
-5.6459 -11.7595 1.3205 1 49 26 121
-5.6332 -11.6953 1.3149 1 49 26 121
-5.6214 -11.6334 1.3079 1 49 26 121
-5.6103 -11.5733 1.304 1 49 26 121
-5.6 -11.5152 1.2958 1 49 26 121
-5.5861 -11.45 1.2893 1 49 26 121
-5.5746 -11.39 1.2841 1 49 26 121
-5.5604 -11.325 1.2768 1 49 26 121
-5.5513 -11.2707 1.2722 1 49 26 121
-5.5384 -11.2088 1.2652 1 49 26 121
-5.5256 -11.1477 1.2591 1 49 26 121
-5.5156 -11.0923 1.2544 1 49 26 121
-5.503 -11.0323 1.2469 1 49 26 121
-5.4925 -10.9767 1.2417 1 49 26 121
-5.4822 -10.9218 1.2359 1 49 26 121
-5.4721 -10.8675 1.2306 1 49 26 121
-5.4609 -10.8115 1.2258 1 49 26 121
-5.4514 -10.7591 1.2179 1 49 26 121
-5.4401 -10.7034 1.2177 1 49 26 121
-5.4289 -10.6481 1.2118 1 49 26 121
-5.4192 -10.5953 1.207 1 49 26 121
-5.4086 -10.5427 1.2018 1 49 26 121
-5.3993 -10.4921 1.1911 1 49 26 121
-5.3892 -10.4402 1.1909 1 49 26 121
-5.3796 -10.3895 1.1851 1 49 26 121
-5.3705 -10.3402 1.1806 1 49 26 121
-5.3643 -10.2966 1.1764 1 49 26 121
-5.3708 -10.2775 1.1746 1 49 26 121
-5.3417 -10.1906 1.1655 1 49 26 121
-5.3301 -10.1374 1.1591 1 49 26 121
-5.3188 -10.0852 1.1549 1 49 26 121
-5.3064 -10.0311 1.1484 1 49 26 121
-5.2989 -9.9865 1.1441 1 49 26 121
-5.2905 -9.9404 1.1406 1 49 26 121
-5.2802 -9.8912 1.1343 1 49 26 121
-5.2705 -9.8432 1.1303 1 49 26 121
-5.2818 -9.8346 1.129 1 49 26 121
-5.287 -9.8147 1.1282 1 49 26 121
-5.2783 -9.7691 1.1241 1 49 26 121
-5.2679 -9.7206 1.1178 1 49 26 121
-5.2575 -9.6724 1.1134 1 49 26 121
-5.2498 -9.6294 1.1089 1 49 26 121
-5.2382 -9.5794 1.1046 1 49 26 121
-5.2329 -9.5405 1.104 1 49 26 121
-5.2211 -9.4906 1.0941 1 49 26 121
-5.2119 -9.4457 1.0935 1 49 26 121
-5.2045 -9.4051 1.0899 1 49 26 121
-5.1966 -9.363 1.0857 1 49 26 121
-5.1904 -9.3242 1.0817 1 49 26 121
-5.1784 -9.2745 1.076 1 49 26 121
-5.1682 -9.2296 1.0719 1 49 26 121
-5.1374 -9.1478 1.0628 1 49 26 121
-5.1248 -9.0985 1.0581 1 49 26 121
-5.1193 -9.0621 1.055 1 49 26 121
-5.1131 -9.0245 1.0504 1 49 26 121
-5.1049 -8.9838 1.0477 1 49 26 121
-5.0944 -8.9391 1.0416 1 49 26 121
-5.085 -8.8967 1.038 1 49 26 121
-5.0892 -8.878 1.0366 1 49 26 121
-5.0946 -8.8615 1.0341 1 49 26 121
-5.0866 -8.822 1.0319 1 49 26 121
-5.0823 -8.7885 1.0268 1 49 26 121
-5.0756 -8.7515 1.0245 1 49 26 121
-5.0665 -8.7112 1.0199 1 49 26 121
-5.0566 -8.669 1.0147 1 49 26 121
-5.0512 -8.6348 1.013 1 49 26 121
-5.0458 -8.6008 1.0085 1 49 26 121
-5.0378 -8.5619 1.0053 1 49 26 121
-5.0308 -8.5254 1.0012 1 49 26 121
-5.0241 -8.4897 0.9971 1 49 26 121
-5.0173 -8.4539 0.9977 1 49 26 121
-5.0102 -8.4183 0.9933 1 49 26 121
-5.0028 -8.3819 0.9876 1 49 26 121
-4.996 -8.3461 0.9829 1 49 26 121
-4.9907 -8.3141 0.9826 1 49 26 121
-4.9831 -8.2772 0.9802 1 49 26 121
-4.9759 -8.2425 0.9759 1 49 26 121
-4.97 -8.2093 0.9706 1 49 26 121
-4.9619 -8.1728 0.9682 1 49 26 121
-4.9577 -8.1427 0.9657 1 49 26 121
-4.951 -8.1088 0.963 1 49 26 121
-4.9428 -8.0725 0.9591 1 49 26 121
-4.933 -8.0333 0.9555 1 49 26 121
-4.9288 -8.0039 0.9519 1 49 26 121
-4.9206 -7.9681 0.9481 1 49 26 121
-4.9147 -7.9362 0.9456 1 49 26 121
-4.9086 -7.9041 0.9419 1 49 26 121
-4.9012 -7.8707 0.9392 1 49 26 121
-4.8944 -7.8378 0.9352 1 49 26 121
-4.8885 -7.8066 0.9319 1 49 26 121
-4.8812 -7.7731 0.9295 1 49 26 121
-4.8894 -7.7645 0.9286 1 49 26 121
-4.9012 -7.7617 0.9299 1 49 26 121
-4.9128 -7.7583 0.9285 1 49 26 121
-4.9255 -7.7568 0.9319 1 49 26 121
-4.9375 -7.7541 0.93 1 49 26 121
-4.9502 -7.7526 0.9294 1 49 26 121
-4.963 -7.7511 0.9317 1 49 26 121
-4.9749 -7.7482 0.9307 1 49 26 121
-4.9869 -7.7455 0.934 1 49 26 121
-4.9992 -7.7432 0.9313 1 49 26 121
-5.0126 -7.7426 0.9343 1 49 26 121
-5.0244 -7.7395 0.9365 1 49 26 121
-5.0376 -7.7385 0.9327 1 49 26 121
-5.6846 -12.1518 1.3423 1 49 26 121
-5.7012 -12.1474 1.3401 1 49 26 121
-5.7179 -12.1433 1.3387 1 49 26 121
-5.7349 -12.1399 1.343 1 49 26 121
-5.7525 -12.1376 1.3444 1 49 26 121
-5.707 -12.0025 1.3285 1 49 26 121
-5.6693 -11.8847 1.3142 1 49 26 121
-5.6591 -11.825 1.3108 1 49 26 121
-5.6466 -11.7608 1.3041 1 49 26 121
-5.6342 -11.6974 1.2987 1 49 26 121
-5.6222 -11.6351 1.2917 1 49 26 121
-5.6085 -11.5695 1.2873 1 49 26 121
-5.6 -11.5153 1.2796 1 49 26 121
-5.5883 -11.4546 1.2736 1 49 26 121
-5.575 -11.3909 1.2681 1 49 26 121
-5.5616 -11.3274 1.261 1 49 26 121
-5.5502 -11.2684 1.256 1 49 26 121
-5.5381 -11.2082 1.2493 1 49 26 121
-5.5265 -11.1495 1.2439 1 49 26 121
-5.5152 -11.0915 1.2382 1 49 26 121
-5.5047 -11.0358 1.2312 1 49 26 121
-5.4934 -10.9785 1.2264 1 49 26 121
-5.4825 -10.9224 1.2205 1 49 26 121
-5.4714 -10.8662 1.215 1 49 26 121
-5.462 -10.8136 1.2102 1 49 26 121
-5.4514 -10.7589 1.203 1 49 26 121
-5.4409 -10.705 1.2023 1 49 26 121
-5.4291 -10.6485 1.1967 1 49 26 121
-5.4193 -10.5956 1.1919 1 49 26 121
-5.4085 -10.5425 1.1863 1 49 26 121
-5.4028 -10.4988 1.1769 1 49 26 121
-5.3929 -10.4475 1.1768 1 49 26 121
-5.4027 -10.4342 1.1753 1 49 26 121
-5.4169 -10.4295 1.1755 1 49 26 121
-5.432 -10.4265 1.1763 1 49 26 121
-5.4504 -10.4299 1.1771 1 49 26 121
-5.3421 -10.1914 1.151 1 49 26 121
-5.3304 -10.1381 1.1446 1 49 26 121
-5.3187 -10.0849 1.1404 1 49 26 121
-5.308 -10.0341 1.1347 1 49 26 121
-5.3003 -9.9892 1.1301 1 49 26 121
-5.2901 -9.9397 1.1263 1 49 26 121
-5.2808 -9.8922 1.1202 1 49 26 121
-5.2712 -9.8444 1.1163 1 49 26 121
-5.2733 -9.8188 1.113 1 49 26 121
-5.2851 -9.8111 1.1136 1 49 26 121
-5.276 -9.7648 1.1091 1 49 26 121
-5.264 -9.7133 1.1033 1 49 26 121
-5.2561 -9.6698 1.0991 1 49 26 121
-5.2445 -9.6197 1.0938 1 49 26 121
-5.2358 -9.575 1.0899 1 49 26 121
-5.2295 -9.5342 1.0891 1 49 26 121
-5.2224 -9.493 1.0807 1 49 26 121
-5.2126 -9.447 1.0799 1 49 26 121
-5.2056 -9.4071 1.0764 1 49 26 121
-5.1974 -9.3646 1.0727 1 49 26 121
-5.1893 -9.3222 1.0679 1 49 26 121
-5.1788 -9.2752 1.0626 1 49 26 121
-5.1703 -9.2335 1.0589 1 49 26 121
-5.1376 -9.148 1.0495 1 49 26 121
-5.1248 -9.0985 1.0449 1 49 26 121
-5.12 -9.0632 1.0419 1 49 26 121
-5.1125 -9.0236 1.0368 1 49 26 121
-5.1048 -8.9836 1.0345 1 49 26 121
-5.096 -8.9418 1.0288 1 49 26 121
-5.085 -8.8965 1.0247 1 49 26 121
-5.094 -8.8864 1.0246 1 49 26 121
-5.0934 -8.8595 1.0209 1 49 26 121
-5.0842 -8.8179 1.0188 1 49 26 121
-5.0791 -8.7828 1.0132 1 49 26 121
-5.0733 -8.7474 1.0112 1 49 26 121
-5.0638 -8.7065 1.0065 1 49 26 121
-5.0576 -8.6707 1.0025 1 49 26 121
-5.0503 -8.6332 1.0001 1 49 26 121
-5.0448 -8.599 0.9953 1 49 26 121
-5.0377 -8.5616 0.9927 1 49 26 121
-5.03 -8.5239 0.9884 1 49 26 121
-5.0242 -8.4898 0.9846 1 49 26 121
-5.0173 -8.4539 0.9855 1 49 26 121
-5.0104 -8.4187 0.9809 1 49 26 121
-5.0035 -8.3831 0.9753 1 49 26 121
-4.9973 -8.3483 0.9708 1 49 26 121
-4.9897 -8.3125 0.9701 1 49 26 121
-4.9827 -8.2767 0.9679 1 49 26 121
-4.9758 -8.2423 0.9634 1 49 26 121
-4.9697 -8.2089 0.958 1 49 26 121
-4.9629 -8.1744 0.9566 1 49 26 121
-4.957 -8.1415 0.9532 1 49 26 121
-4.9473 -8.1028 0.9502 1 49 26 121
-4.9445 -8.0753 0.9471 1 49 26 121
-4.9345 -8.0357 0.9436 1 49 26 121
-4.9296 -8.0052 0.9401 1 49 26 121
-4.9223 -7.9709 0.9365 1 49 26 121
-4.9145 -7.9358 0.9337 1 49 26 121
-4.9082 -7.9035 0.9297 1 49 26 121
-4.9019 -7.8719 0.9276 1 49 26 121
-4.8952 -7.8391 0.9233 1 49 26 121
-4.8895 -7.8081 0.9207 1 49 26 121
-4.8834 -7.7766 0.9183 1 49 26 121
-4.8894 -7.7644 0.9167 1 49 26 121
-4.9005 -7.7604 0.9184 1 49 26 121
-4.9128 -7.7584 0.9168 1 49 26 121
-4.9261 -7.7577 0.9207 1 49 26 121
-4.9376 -7.7543 0.9184 1 49 26 121
-4.95 -7.7522 0.918 1 49 26 121
-4.9625 -7.7503 0.9197 1 49 26 121
-4.9748 -7.7481 0.919 1 49 26 121
-4.9879 -7.747 0.9225 1 49 26 121
-4.999 -7.743 0.9199 1 49 26 121
-5.0115 -7.7409 0.9224 1 49 26 121
-5.0246 -7.7397 0.9248 1 49 26 121
-5.0371 -7.7378 0.9209 1 49 26 121
-5.6844 -12.1513 1.3252 1 49 26 121
-5.701 -12.1471 1.323 1 49 26 121
-5.7177 -12.1429 1.3216 1 49 26 121
-5.7351 -12.1401 1.3259 1 49 26 121
-5.7525 -12.1376 1.3273 1 49 26 121
-5.6861 -11.9587 1.3073 1 49 26 121
-5.6706 -11.8874 1.2977 1 49 26 121
-5.6589 -11.8246 1.2942 1 49 26 121
-5.6468 -11.7613 1.2876 1 49 26 121
-5.6338 -11.6966 1.2821 1 49 26 121
-5.6232 -11.637 1.2755 1 49 26 121
-5.6124 -11.5777 1.2718 1 49 26 121
-5.6 -11.5152 1.2633 1 49 26 121
-5.5876 -11.453 1.2573 1 49 26 121
-5.5748 -11.3904 1.252 1 49 26 121
-5.5608 -11.3257 1.2448 1 49 26 121
-5.549 -11.2659 1.2398 1 49 26 121
-5.537 -11.206 1.2332 1 49 26 121
-5.5263 -11.149 1.2277 1 49 26 121
-5.5169 -11.0951 1.2233 1 49 26 121
-5.5048 -11.0359 1.216 1 49 26 121
-5.4938 -10.9793 1.2109 1 49 26 121
-5.4824 -10.9221 1.2049 1 49 26 121
-5.4719 -10.8672 1.1996 1 49 26 121
-5.463 -10.8156 1.1955 1 49 26 121
-5.4513 -10.7589 1.1873 1 49 26 121
-5.4407 -10.7045 1.1874 1 49 26 121
-5.4311 -10.6524 1.182 1 49 26 121
-5.4242 -10.6052 1.1779 1 49 26 121
-5.4284 -10.5813 1.176 1 49 26 121
-5.4726 -10.6347 1.177 1 49 26 121
-5.4626 -10.5825 1.1769 1 49 26 121
-5.4803 -10.584 1.177 1 49 26 121
-5.4959 -10.5817 1.1776 1 49 26 121
-5.5092 -10.5746 1.1779 1 49 26 121
-5.525 -10.5727 1.1781 1 49 26 121
-5.3424 -10.1919 1.1364 1 49 26 121
-5.3296 -10.1365 1.1299 1 49 26 121
-5.3192 -10.0858 1.1261 1 49 26 121
-5.308 -10.0341 1.1203 1 49 26 121
-5.3003 -9.9892 1.1157 1 49 26 121
-5.2913 -9.942 1.1122 1 49 26 121
-5.281 -9.8927 1.106 1 49 26 121
-5.2709 -9.844 1.102 1 49 26 121
-5.2588 -9.7917 1.0962 1 49 26 121
-5.2606 -9.7656 1.0944 1 49 26 121
-5.2725 -9.7584 1.0947 1 49 26 121
-5.2655 -9.7162 1.0893 1 49 26 121
-5.2582 -9.6737 1.0856 1 49 26 121
-5.2469 -9.6239 1.0804 1 49 26 121
-5.2328 -9.5695 1.0757 1 49 26 121
-5.2236 -9.5235 1.0744 1 49 26 121
-5.2224 -9.493 1.0669 1 49 26 121
-5.2154 -9.4522 1.0668 1 49 26 121
-5.2072 -9.4099 1.0631 1 49 26 121
-5.1988 -9.367 1.0594 1 49 26 121
-5.191 -9.3253 1.0547 1 49 26 121
-5.1788 -9.2752 1.0491 1 49 26 121
-5.1698 -9.2325 1.0457 1 49 26 121
-5.1393 -9.1511 1.0368 1 49 26 121
-5.1284 -9.1048 1.0323 1 49 26 121
-5.1213 -9.0656 1.0289 1 49 26 121
-5.1121 -9.0229 1.0238 1 49 26 121
-5.1039 -8.9819 1.0212 1 49 26 121
-5.0954 -8.9408 1.0156 1 49 26 121
-5.0926 -8.9099 1.0135 1 49 26 121
-5.101 -8.8986 1.0133 1 49 26 121
-5.0942 -8.8609 1.0081 1 49 26 121
-5.0862 -8.8213 1.0059 1 49 26 121
-5.081 -8.7861 1.0007 1 49 26 121
-5.0723 -8.7457 0.9981 1 49 26 121
-5.0646 -8.7078 0.9939 1 49 26 121
-5.0587 -8.6726 0.99 1 49 26 121
-5.0494 -8.6317 0.9873 1 49 26 121
-5.0446 -8.5987 0.983 1 49 26 121
-5.0363 -8.5592 0.9798 1 49 26 121
-5.0294 -8.5229 0.9758 1 49 26 121
-5.0235 -8.4886 0.9719 1 49 26 121
-5.0171 -8.4535 0.9727 1 49 26 121
-5.009 -8.4164 0.9685 1 49 26 121
-5.0039 -8.3838 0.963 1 49 26 121
-4.9955 -8.3452 0.9581 1 49 26 121
-4.9905 -8.3138 0.9579 1 49 26 121
-4.9827 -8.2767 0.9556 1 49 26 121
-4.9764 -8.2432 0.9515 1 49 26 121
-4.9677 -8.2056 0.9458 1 49 26 121
-4.9608 -8.1709 0.9437 1 49 26 121
-4.9543 -8.1372 0.9409 1 49 26 121
-4.9459 -8.1005 0.9379 1 49 26 121
-4.9399 -8.0677 0.9346 1 49 26 121
-4.933 -8.0333 0.9316 1 49 26 121
-4.9284 -8.0032 0.9279 1 49 26 121
-4.924 -7.9735 0.9249 1 49 26 121
-4.9141 -7.9353 0.9218 1 49 26 121
-4.9084 -7.9038 0.9183 1 49 26 121
-4.9028 -7.8733 0.916 1 49 26 121
-4.8962 -7.8406 0.912 1 49 26 121
-4.8898 -7.8085 0.9087 1 49 26 121
-4.8822 -7.7747 0.9064 1 49 26 121
-4.8882 -7.7626 0.9051 1 49 26 121
-4.9005 -7.7605 0.9064 1 49 26 121
-4.9134 -7.7593 0.9053 1 49 26 121
-4.9264 -7.7581 0.9088 1 49 26 121
-4.9384 -7.7555 0.9069 1 49 26 121
-4.95 -7.7522 0.906 1 49 26 121
-4.9629 -7.7509 0.9081 1 49 26 121
-4.9753 -7.7488 0.9074 1 49 26 121
-4.9873 -7.7461 0.9107 1 49 26 121
-4.9997 -7.7439 0.908 1 49 26 121
-5.0118 -7.7413 0.9108 1 49 26 121
-5.0239 -7.7387 0.913 1 49 26 121
-5.0381 -7.7393 0.9094 1 49 26 121
-5.6847 -12.1519 1.3083 1 49 26 121
-5.7009 -12.1469 1.306 1 49 26 121
-5.7176 -12.1427 1.3046 1 49 26 121
-5.7346 -12.1391 1.3088 1 49 26 121
-5.7513 -12.135 1.31 1 49 26 121
-5.6833 -11.9527 1.2894 1 49 26 121
-5.6704 -11.8871 1.281 1 49 26 121
-5.6573 -11.8214 1.2772 1 49 26 121
-5.6458 -11.7593 1.2708 1 49 26 121
-5.6341 -11.6972 1.2657 1 49 26 121
-5.6238 -11.6384 1.2593 1 49 26 121
-5.6127 -11.5783 1.2552 1 49 26 121
-5.6017 -11.5187 1.2475 1 49 26 121
-5.5887 -11.4552 1.2413 1 49 26 121
-5.5742 -11.3891 1.2357 1 49 26 121
-5.5613 -11.3267 1.2289 1 49 26 121
-5.5491 -11.2661 1.2239 1 49 26 121
-5.5378 -11.2076 1.2175 1 49 26 121
-5.5271 -11.1506 1.2125 1 49 26 121
-5.5168 -11.0949 1.2076 1 49 26 121
-5.5049 -11.036 1.1999 1 49 26 121
-5.4944 -10.9804 1.1954 1 49 26 121
-5.4832 -10.9238 1.1896 1 49 26 121
-5.4735 -10.8703 1.1846 1 49 26 121
-5.4639 -10.8173 1.1799 1 49 26 121
-5.4754 -10.8063 1.1775 1 49 26 121
-5.4643 -10.7509 1.1768 1 49 26 121
-5.4802 -10.7487 1.1773 1 49 26 121
-5.4943 -10.7422 1.1778 1 49 26 121
-5.5096 -10.7397 1.1779 1 49 26 121
-5.5531 -10.791 1.1789 1 49 26 121
-5.5403 -10.733 1.1783 1 49 26 121
-5.557 -10.7322 1.1782 1 49 26 121
-5.5728 -10.7297 1.1787 1 49 26 121
-5.5861 -10.7223 1.179 1 49 26 121
-5.603 -10.7218 1.1794 1 49 26 121
-5.3419 -10.191 1.1217 1 49 26 121
-5.3309 -10.1389 1.1156 1 49 26 121
-5.3197 -10.0869 1.1117 1 49 26 121
-5.3092 -10.0364 1.1062 1 49 26 121
-5.301 -9.9905 1.1015 1 49 26 121
-5.2913 -9.942 1.0979 1 49 26 121
-5.2813 -9.8932 1.0922 1 49 26 121
-5.2719 -9.8458 1.0881 1 49 26 121
-5.2577 -9.7897 1.0816 1 49 26 121
-5.254 -9.7534 1.079 1 49 26 121
-5.2738 -9.7608 1.0805 1 49 26 121
-5.2661 -9.7173 1.0757 1 49 26 121
-5.2582 -9.6736 1.0716 1 49 26 121
-5.2476 -9.6253 1.0667 1 49 26 121
-5.2336 -9.5709 1.0617 1 49 26 121
-5.2203 -9.5175 1.06 1 49 26 121
-5.2219 -9.4921 1.0531 1 49 26 121
-5.2162 -9.4535 1.0533 1 49 26 121
-5.2086 -9.4125 1.0498 1 49 26 121
-5.1996 -9.3685 1.0459 1 49 26 121
-5.1907 -9.3248 1.0411 1 49 26 121
-5.1799 -9.2772 1.0362 1 49 26 121
-5.1706 -9.234 1.0321 1 49 26 121
-5.157 -9.1826 1.0267 1 49 26 121
-5.1284 -9.1049 1.0191 1 49 26 121
-5.1188 -9.0611 1.0152 1 49 26 121
-5.111 -9.0208 1.0101 1 49 26 121
-5.1035 -8.9812 1.008 1 49 26 121
-5.0963 -8.9424 1.0028 1 49 26 121
-5.0967 -8.917 1.0013 1 49 26 121
-5.1033 -8.9026 1.0004 1 49 26 121
-5.0963 -8.8646 0.9955 1 49 26 121
-5.0882 -8.8247 0.9937 1 49 26 121
-5.0815 -8.7869 0.988 1 49 26 121
-5.0724 -8.7458 0.9853 1 49 26 121
-5.065 -8.7085 0.9812 1 49 26 121
-5.0581 -8.6715 0.9771 1 49 26 121
-5.0515 -8.6353 0.975 1 49 26 121
-5.044 -8.5977 0.9699 1 49 26 121
-5.0373 -8.5609 0.9674 1 49 26 121
-5.0282 -8.521 0.963 1 49 26 121
-5.0224 -8.4867 0.9592 1 49 26 121
-5.0155 -8.4509 0.9602 1 49 26 121
-5.0084 -8.4153 0.9556 1 49 26 121
-5.0004 -8.3779 0.9499 1 49 26 121
-4.9953 -8.3449 0.9457 1 49 26 121
-4.9904 -8.3136 0.9456 1 49 26 121
-4.9836 -8.2781 0.9435 1 49 26 121
-4.9734 -8.2384 0.9385 1 49 26 121
-4.9662 -8.2031 0.933 1 49 26 121
-4.9589 -8.1679 0.9316 1 49 26 121
-4.9549 -8.1382 0.9286 1 49 26 121
-4.948 -8.1039 0.9263 1 49 26 121
-4.9416 -8.0705 0.9226 1 49 26 121
-4.9349 -8.0364 0.9197 1 49 26 121
-4.9304 -8.0065 0.9164 1 49 26 121
-4.924 -7.9736 0.913 1 49 26 121
-4.9165 -7.9391 0.9104 1 49 26 121
-4.9093 -7.9052 0.9063 1 49 26 121
-4.9027 -7.8731 0.9042 1 49 26 121
-4.8959 -7.8402 0.9003 1 49 26 121
-4.8902 -7.8092 0.8974 1 49 26 121
-4.882 -7.7743 0.895 1 49 26 121
-4.8886 -7.7632 0.8932 1 49 26 121
-4.9008 -7.761 0.8951 1 49 26 121
-4.9132 -7.7589 0.8936 1 49 26 121
-4.9257 -7.7571 0.8973 1 49 26 121
-4.9381 -7.7551 0.8951 1 49 26 121
-4.9502 -7.7526 0.8947 1 49 26 121
-4.9629 -7.7509 0.8964 1 49 26 121
-4.9746 -7.7477 0.8956 1 49 26 121
-4.9873 -7.7461 0.899 1 49 26 121
-5.0003 -7.7449 0.8967 1 49 26 121
-5.0118 -7.7413 0.8991 1 49 26 121
-5.0246 -7.7397 0.9014 1 49 26 121
-5.0365 -7.7368 0.8974 1 49 26 121
-5.6846 -12.1516 1.2912 1 49 26 121
-5.7015 -12.148 1.2891 1 49 26 121
-5.7176 -12.1425 1.2875 1 49 26 121
-5.7341 -12.1382 1.2917 1 49 26 121
-5.7515 -12.1355 1.293 1 49 26 121
-5.6832 -11.9524 1.273 1 49 26 121
-5.6718 -11.8899 1.2646 1 49 26 121
-5.6581 -11.8229 1.2607 1 49 26 121
-5.6468 -11.7612 1.2545 1 49 26 121
-5.6344 -11.6979 1.2493 1 49 26 121
-5.6232 -11.6372 1.2432 1 49 26 121
-5.6118 -11.5764 1.2391 1 49 26 121
-5.6006 -11.5164 1.231 1 49 26 121
-5.5891 -11.456 1.2253 1 49 26 121
-5.5754 -11.3916 1.2199 1 49 26 121
-5.5597 -11.3235 1.2126 1 49 26 121
-5.5476 -11.2631 1.2076 1 49 26 121
-5.5374 -11.2069 1.2016 1 49 26 121
-5.5264 -11.1493 1.1961 1 49 26 121
-5.5152 -11.0916 1.1915 1 49 26 121
-5.5045 -11.0353 1.1846 1 49 26 121
-5.4971 -10.9859 1.1804 1 49 26 121
-5.5017 -10.9605 1.1785 1 49 26 121
-5.5138 -10.9503 1.1777 1 49 26 121
-5.5238 -10.936 1.1777 1 49 26 121
-5.5505 -10.9545 1.1777 1 49 26 121
-5.5412 -10.9023 1.1783 1 49 26 121
-5.5586 -10.9025 1.1787 1 49 26 121
-5.5734 -10.8969 1.1792 1 49 26 121
-5.5868 -10.8901 1.1792 1 49 26 121
-5.6251 -10.9308 1.1786 1 49 26 121
-5.6158 -10.8792 1.1788 1 49 26 121
-5.6332 -10.8794 1.1788 1 49 26 121
-5.3426 -10.1924 1.1073 1 49 26 121
-5.3307 -10.1385 1.1011 1 49 26 121
-5.3194 -10.0863 1.0972 1 49 26 121
-5.3085 -10.0351 1.0916 1 49 26 121
-5.3001 -9.9888 1.087 1 49 26 121
-5.2915 -9.9424 1.0837 1 49 26 121
-5.2817 -9.894 1.0777 1 49 26 121
-5.2724 -9.8467 1.074 1 49 26 121
-5.2594 -9.7929 1.0682 1 49 26 121
-5.2543 -9.7539 1.0653 1 49 26 121
-5.2755 -9.7638 1.0671 1 49 26 121
-5.2668 -9.7185 1.0615 1 49 26 121
-5.2585 -9.6741 1.0581 1 49 26 121
-5.2476 -9.6252 1.0528 1 49 26 121
-5.2318 -9.5676 1.0479 1 49 26 121
-5.2211 -9.5189 1.0464 1 49 26 121
-5.2209 -9.4902 1.0391 1 49 26 121
-5.2153 -9.4519 1.0394 1 49 26 121
-5.2091 -9.4134 1.0362 1 49 26 121
-5.1995 -9.3682 1.0323 1 49 26 121
-5.1881 -9.3202 1.0271 1 49 26 121
-5.1769 -9.2719 1.0221 1 49 26 121
-5.1693 -9.2316 1.0184 1 49 26 121
-5.1597 -9.1874 1.0142 1 49 26 121
-5.1277 -9.1036 1.0057 1 49 26 121
-5.1185 -9.0605 1.002 1 49 26 121
-5.1106 -9.0201 0.9972 1 49 26 121
-5.1027 -8.9799 0.9948 1 49 26 121
-5.0973 -8.9441 0.9899 1 49 26 121
-5.1045 -8.9307 0.9898 1 49 26 121
-5.1039 -8.9037 0.9875 1 49 26 121
-5.0969 -8.8657 0.9827 1 49 26 121
-5.0888 -8.8258 0.9806 1 49 26 121
-5.0818 -8.7875 0.9751 1 49 26 121
-5.0727 -8.7464 0.9726 1 49 26 121
-5.063 -8.705 0.968 1 49 26 121
-5.0579 -8.6712 0.964 1 49 26 121
-5.0508 -8.6341 0.9622 1 49 26 121
-5.0435 -8.5967 0.9575 1 49 26 121
-5.0367 -8.5599 0.9547 1 49 26 121
-5.0309 -8.5254 0.9509 1 49 26 121
-5.0256 -8.4922 0.9473 1 49 26 121
-5.0178 -8.4547 0.9482 1 49 26 121
-5.0116 -8.4207 0.9441 1 49 26 121
-5.0029 -8.382 0.938 1 49 26 121
-4.9969 -8.3477 0.9337 1 49 26 121
-4.9896 -8.3122 0.9332 1 49 26 121
-4.9825 -8.2762 0.9311 1 49 26 121
-4.9748 -8.2405 0.9268 1 49 26 121
-4.9688 -8.2074 0.9217 1 49 26 121
-4.9612 -8.1715 0.9195 1 49 26 121
-4.9546 -8.1376 0.9167 1 49 26 121
-4.948 -8.1038 0.9142 1 49 26 121
-4.9415 -8.0705 0.9109 1 49 26 121
-4.9364 -8.0389 0.9083 1 49 26 121
-4.93 -8.0058 0.9044 1 49 26 121
-4.9227 -7.9715 0.9009 1 49 26 121
-4.9168 -7.9396 0.8986 1 49 26 121
-4.9098 -7.9061 0.8949 1 49 26 121
-4.9032 -7.8739 0.8925 1 49 26 121
-4.895 -7.8388 0.8884 1 49 26 121
-4.889 -7.8073 0.8852 1 49 26 121
-4.8848 -7.7788 0.8836 1 49 26 121
-4.8884 -7.7629 0.8819 1 49 26 121
-4.9008 -7.7609 0.8835 1 49 26 121
-4.9129 -7.7585 0.8819 1 49 26 121
-4.9265 -7.7584 0.8855 1 49 26 121
-4.9378 -7.7546 0.8834 1 49 26 121
-4.9503 -7.7528 0.8828 1 49 26 121
-4.9621 -7.7497 0.8849 1 49 26 121
-4.9753 -7.7488 0.884 1 49 26 121
-4.9878 -7.7468 0.8877 1 49 26 121
-4.9999 -7.7442 0.8846 1 49 26 121
-5.0121 -7.7419 0.8874 1 49 26 121
-5.0249 -7.7403 0.8897 1 49 26 121
-5.0367 -7.7371 0.8857 1 49 26 121
-5.6843 -12.151 1.2742 1 49 26 121
-5.7009 -12.1468 1.2719 1 49 26 121
-5.717 -12.1413 1.2704 1 49 26 121
-5.7345 -12.1388 1.2747 1 49 26 121
-5.7507 -12.1336 1.2758 1 49 26 121
-5.6845 -11.9551 1.2565 1 49 26 121
-5.6727 -11.8918 1.2481 1 49 26 121
-5.6594 -11.8256 1.2444 1 49 26 121
-5.6461 -11.7599 1.2382 1 49 26 121
-5.6354 -11.6999 1.2331 1 49 26 121
-5.6241 -11.639 1.2266 1 49 26 121
-5.6117 -11.5762 1.2227 1 49 26 121
-5.6017 -11.5186 1.215 1 49 26 121
-5.5892 -11.4562 1.2091 1 49 26 121
-5.575 -11.3908 1.2038 1 49 26 121
-5.5586 -11.3213 1.1963 1 49 26 121
-5.5478 -11.2635 1.1918 1 49 26 121
-5.5373 -11.2066 1.1857 1 49 26 121
-5.5303 -11.1571 1.1816 1 49 26 121
-5.5352 -11.1318 1.18 1 49 26 121
-5.551 -11.1285 1.1785 1 49 26 121
-5.5616 -11.1148 1.1789 1 49 26 121
-5.5781 -11.1129 1.1787 1 49 26 121
-5.5945 -11.1105 1.1792 1 49 26 121
-5.606 -11.0988 1.1791 1 49 26 121
-5.6291 -11.1096 1.179 1 49 26 121
-5.6184 -11.0541 1.1786 1 49 26 121
-5.6317 -11.0459 1.1784 1 49 26 121
-5.6459 -11.0386 1.1788 1 49 26 121
-5.6582 -11.0293 1.1782 1 49 26 121
-5.3423 -10.1917 1.0926 1 49 26 121
-5.3306 -10.1383 1.0865 1 49 26 121
-5.3189 -10.0854 1.0826 1 49 26 121
-5.3086 -10.0352 1.0773 1 49 26 121
-5.3013 -9.991 1.0729 1 49 26 121
-5.2923 -9.9439 1.0696 1 49 26 121
-5.2815 -9.8936 1.0638 1 49 26 121
-5.273 -9.8479 1.06 1 49 26 121
-5.2611 -9.796 1.054 1 49 26 121
-5.2574 -9.7597 1.0516 1 49 26 121
-5.2754 -9.7637 1.0527 1 49 26 121
-5.2668 -9.7185 1.0478 1 49 26 121
-5.2599 -9.6768 1.0441 1 49 26 121
-5.2486 -9.6272 1.0391 1 49 26 121
-5.2283 -9.5613 1.033 1 49 26 121
-5.2236 -9.5235 1.0331 1 49 26 121
-5.2198 -9.4883 1.0252 1 49 26 121
-5.2143 -9.4502 1.0255 1 49 26 121
-5.2037 -9.4036 1.0215 1 49 26 121
-5.1934 -9.3572 1.0175 1 49 26 121
-5.1859 -9.3162 1.0134 1 49 26 121
-5.1761 -9.2704 1.0082 1 49 26 121
-5.169 -9.2311 1.0049 1 49 26 121
-5.1588 -9.1858 1.0004 1 49 26 121
-5.1283 -9.1047 0.9926 1 49 26 121
-5.1178 -9.0594 0.9887 1 49 26 121
-5.1105 -9.02 0.9837 1 49 26 121
-5.1014 -8.9776 0.9814 1 49 26 121
-5.1001 -8.9491 0.9774 1 49 26 121
-5.1079 -8.9367 0.9774 1 49 26 121
-5.1015 -8.8995 0.974 1 49 26 121
-5.0971 -8.8659 0.9698 1 49 26 121
-5.0886 -8.8254 0.968 1 49 26 121
-5.0807 -8.7855 0.9621 1 49 26 121
-5.0722 -8.7455 0.9597 1 49 26 121
-5.0643 -8.7072 0.9555 1 49 26 121
-5.0606 -8.6758 0.9521 1 49 26 121
-5.0504 -8.6335 0.9494 1 49 26 121
-5.0467 -8.6022 0.9451 1 49 26 121
-5.0392 -8.5641 0.9426 1 49 26 121
-5.0298 -8.5236 0.9382 1 49 26 121
-5.0228 -8.4874 0.9343 1 49 26 121
-5.0155 -8.4508 0.9353 1 49 26 121
-5.0096 -8.4174 0.931 1 49 26 121
-5.0032 -8.3825 0.9257 1 49 26 121
-4.9956 -8.3454 0.9211 1 49 26 121
-4.9893 -8.3118 0.9208 1 49 26 121
-4.9827 -8.2766 0.9188 1 49 26 121
-4.9765 -8.2435 0.9149 1 49 26 121
-4.9688 -8.2074 0.9092 1 49 26 121
-4.9623 -8.1734 0.9079 1 49 26 121
-4.9552 -8.1386 0.9048 1 49 26 121
-4.9485 -8.1047 0.9023 1 49 26 121
-4.9415 -8.0704 0.8986 1 49 26 121
-4.9358 -8.0379 0.8962 1 49 26 121
-4.9293 -8.0047 0.8923 1 49 26 121
-4.9225 -7.9711 0.889 1 49 26 121
-4.9151 -7.9368 0.8864 1 49 26 121
-4.9102 -7.9068 0.8829 1 49 26 121
-4.9033 -7.874 0.8808 1 49 26 121
-4.896 -7.8404 0.8768 1 49 26 121
-4.8904 -7.8096 0.8741 1 49 26 121
-4.8852 -7.7795 0.8723 1 49 26 121
-4.8879 -7.7622 0.8698 1 49 26 121
-4.9013 -7.7617 0.8719 1 49 26 121
-4.9135 -7.7594 0.8706 1 49 26 121
-4.9252 -7.7562 0.8739 1 49 26 121
-4.9382 -7.7552 0.8718 1 49 26 121
-4.9508 -7.7535 0.8715 1 49 26 121
-4.9625 -7.7503 0.873 1 49 26 121
-4.9745 -7.7476 0.8722 1 49 26 121
-4.9885 -7.7479 0.8759 1 49 26 121
-4.9999 -7.7442 0.8732 1 49 26 121
-5.0114 -7.7408 0.8756 1 49 26 121
-5.0245 -7.7396 0.8779 1 49 26 121
-5.037 -7.7375 0.874 1 49 26 121
-5.6846 -12.1516 1.2576 1 49 26 121
-5.7009 -12.1468 1.2549 1 49 26 121
-5.7176 -12.1427 1.2535 1 49 26 121
-5.7334 -12.1366 1.2575 1 49 26 121
-5.7492 -12.1304 1.2584 1 49 26 121
-5.6851 -11.9565 1.2399 1 49 26 121
-5.6728 -11.892 1.2314 1 49 26 121
-5.6591 -11.825 1.2277 1 49 26 121
-5.6466 -11.761 1.2214 1 49 26 121
-5.6354 -11.6999 1.2166 1 49 26 121
-5.624 -11.6387 1.2106 1 49 26 121
-5.6129 -11.5787 1.2067 1 49 26 121
-5.6012 -11.5175 1.1986 1 49 26 121
-5.5882 -11.4542 1.1927 1 49 26 121
-5.5749 -11.3907 1.1877 1 49 26 121
-5.5586 -11.3213 1.1808 1 49 26 121
-5.5505 -11.2689 1.1764 1 49 26 121
-5.5661 -11.265 1.1759 1 49 26 121
-5.5814 -11.2601 1.1762 1 49 26 121
-5.5963 -11.2546 1.1771 1 49 26 121
-5.6134 -11.2535 1.1761 1 49 26 121
-5.6287 -11.2487 1.1768 1 49 26 121
-5.6442 -11.2445 1.1767 1 49 26 121
-5.6587 -11.238 1.1768 1 49 26 121
-5.6711 -11.2276 1.1772 1 49 26 121
-5.6922 -11.2342 1.1763 1 49 26 121
-5.6905 -11.1959 1.1782 1 49 26 121
-5.3422 -10.1914 1.078 1 49 26 121
-5.3297 -10.1367 1.0718 1 49 26 121
-5.3189 -10.0853 1.0682 1 49 26 121
-5.3093 -10.0366 1.063 1 49 26 121
-5.3008 -9.99 1.0584 1 49 26 121
-5.2934 -9.9459 1.0555 1 49 26 121
-5.2827 -9.8958 1.0495 1 49 26 121
-5.2729 -9.8476 1.0458 1 49 26 121
-5.2627 -9.7989 1.0406 1 49 26 121
-5.2607 -9.7658 1.0385 1 49 26 121
-5.2756 -9.7641 1.039 1 49 26 121
-5.2669 -9.7188 1.0335 1 49 26 121
-5.2595 -9.676 1.0304 1 49 26 121
-5.2467 -9.6237 1.0248 1 49 26 121
-5.2291 -9.5628 1.0197 1 49 26 121
-5.2255 -9.5269 1.0197 1 49 26 121
-5.2207 -9.4899 1.0116 1 49 26 121
-5.2127 -9.4473 1.0115 1 49 26 121
-5.2004 -9.3977 1.0073 1 49 26 121
-5.1937 -9.3577 1.004 1 49 26 121
-5.185 -9.3145 0.9994 1 49 26 121
-5.1761 -9.271 0.9951 1 49 26 121
-5.1676 -9.2286 0.9916 1 49 26 121
-5.1599 -9.1877 0.9875 1 49 26 121
-5.1292 -9.1062 0.9795 1 49 26 121
-5.1179 -9.0595 0.9755 1 49 26 121
-5.1106 -9.02 0.9709 1 49 26 121
-5.1045 -8.983 0.9689 1 49 26 121
-5.102 -8.9524 0.9647 1 49 26 121
-5.1086 -8.9378 0.9645 1 49 26 121
-5.1019 -8.9001 0.9614 1 49 26 121
-5.0967 -8.8653 0.9567 1 49 26 121
-5.0879 -8.8243 0.9549 1 49 26 121
-5.0818 -8.7875 0.9494 1 49 26 121
-5.0741 -8.7489 0.9472 1 49 26 121
-5.0693 -8.7158 0.9437 1 49 26 121
-5.0624 -8.6788 0.9397 1 49 26 121
-5.0489 -8.6309 0.9365 1 49 26 121
-5.0448 -8.5989 0.9324 1 49 26 121
-5.037 -8.5604 0.9296 1 49 26 121
-5.029 -8.5222 0.9255 1 49 26 121
-5.0228 -8.4874 0.9218 1 49 26 121
-5.0155 -8.4508 0.9228 1 49 26 121
-5.0096 -8.4173 0.9189 1 49 26 121
-5.0029 -8.3821 0.9133 1 49 26 121
-4.9959 -8.3459 0.9088 1 49 26 121
-4.9902 -8.3133 0.9087 1 49 26 121
-4.9832 -8.2774 0.9067 1 49 26 121
-4.9757 -8.2421 0.9026 1 49 26 121
-4.9699 -8.2092 0.8975 1 49 26 121
-4.9641 -8.1764 0.8958 1 49 26 121
-4.9542 -8.137 0.8925 1 49 26 121
-4.9486 -8.1049 0.8903 1 49 26 121
-4.9414 -8.0702 0.8868 1 49 26 121
-4.9369 -8.0396 0.8845 1 49 26 121
-4.9273 -8.0013 0.88 1 49 26 121
-4.9217 -7.9698 0.877 1 49 26 121
-4.9146 -7.936 0.8745 1 49 26 121
-4.9096 -7.9057 0.8713 1 49 26 121
-4.9028 -7.8732 0.8689 1 49 26 121
-4.9002 -7.8471 0.8659 1 49 26 121
-4.8879 -7.8054 0.8619 1 49 26 121
-4.885 -7.7791 0.8603 1 49 26 121
-4.8894 -7.7644 0.8588 1 49 26 121
-4.9005 -7.7605 0.8602 1 49 26 121
-4.9129 -7.7584 0.8586 1 49 26 121
-4.9254 -7.7566 0.862 1 49 26 121
-4.9375 -7.7541 0.8601 1 49 26 121
-4.9504 -7.7529 0.8594 1 49 26 121
-4.9628 -7.7508 0.8614 1 49 26 121
-4.9751 -7.7485 0.8606 1 49 26 121
-4.9874 -7.7463 0.8643 1 49 26 121
-4.9998 -7.7442 0.8613 1 49 26 121
-5.013 -7.7431 0.8642 1 49 26 121
-5.0249 -7.7402 0.8663 1 49 26 121
-5.0365 -7.7369 0.8623 1 49 26 121
-5.6849 -12.1522 1.2403 1 49 26 121
-5.7015 -12.148 1.238 1 49 26 121
-5.7179 -12.1432 1.2366 1 49 26 121
-5.7339 -12.1376 1.2406 1 49 26 121
-5.7497 -12.1316 1.2415 1 49 26 121
-5.6853 -11.9568 1.2231 1 49 26 121
-5.6731 -11.8926 1.2148 1 49 26 121
-5.6603 -11.8276 1.2118 1 49 26 121
-5.6473 -11.7623 1.2054 1 49 26 121
-5.6352 -11.6994 1.2001 1 49 26 121
-5.6237 -11.6382 1.1937 1 49 26 121
-5.612 -11.5768 1.1898 1 49 26 121
-5.6021 -11.5194 1.1826 1 49 26 121
-5.5887 -11.4552 1.1767 1 49 26 121
-5.5748 -11.3903 1.172 1 49 26 121
-5.558 -11.32 1.1642 1 49 26 121
-5.5519 -11.2718 1.1608 1 49 26 121
-5.5676 -11.2678 1.1603 1 49 26 121
-5.5839 -11.2652 1.1612 1 49 26 121
-5.6009 -11.264 1.1622 1 49 26 121
-5.6168 -11.2604 1.1609 1 49 26 121
-5.6325 -11.2564 1.1616 1 49 26 121
-5.6495 -11.2551 1.1618 1 49 26 121
-5.6644 -11.2495 1.162 1 49 26 121
-5.6812 -11.2475 1.1629 1 49 26 121
-5.6971 -11.244 1.1613 1 49 26 121
-5.7122 -11.2386 1.1663 1 49 26 121
-5.3425 -10.1921 1.0635 1 49 26 121
-5.3297 -10.1366 1.0573 1 49 26 121
-5.318 -10.0837 1.0536 1 49 26 121
