-5.42 -12.1813 6.6866 1 126 39 38
-5.4385 -12.1805 6.6931 1 126 39 38
-5.4602 -12.1879 6.6983 1 126 39 38
-5.4817 -12.1949 6.7064 1 126 39 38
-5.4989 -12.1922 6.7072 1 126 39 38
-5.5148 -12.1865 6.7084 1 126 39 38
-5.5323 -12.1843 6.7121 1 126 39 38
-5.5487 -12.1797 6.7123 1 126 39 38
-5.5662 -12.1777 6.715 1 126 39 38
-5.5817 -12.1711 6.7147 1 126 39 38
-5.5985 -12.1683 6.7165 1 126 39 38
-2.9705 -12.678 6.5161 1 126 39 38
-2.9783 -12.6397 6.4932 1 126 39 38
-2.994 -12.635 6.4928 1 126 39 38
-3.009 -12.6294 6.4912 1 126 39 38
-3.049 -12.656 6.5139 1 126 39 38
-3.0619 -12.6382 6.5017 1 126 39 38
-3.0758 -12.6281 6.4964 1 126 39 38
-3.1042 -12.605 6.4891 1 126 39 38
-3.1301 -12.6417 6.5156 1 126 39 38
-3.1384 -12.609 6.4956 1 126 39 38
-3.1535 -12.6004 6.4917 1 126 39 38
-3.1711 -12.6033 6.4963 1 126 39 38
-3.1867 -12.5984 6.4949 1 126 39 38
-3.2136 -12.6381 6.524 1 126 39 38
-3.2207 -12.5994 6.5 1 126 39 38
-3.2449 -12.6281 6.522 1 126 39 38
-3.2559 -12.6067 6.5084 1 126 39 38
-3.2779 -12.6264 6.5238 1 126 39 38
-3.2924 -12.6152 6.5217 1 126 39 38
-3.3045 -12.5969 6.5124 1 126 39 38
-3.32 -12.5915 6.5123 1 126 39 38
-3.3355 -12.5861 6.5116 1 126 39 38
-3.3518 -12.5836 6.512 1 126 39 38
-3.3672 -12.5781 6.5118 1 126 39 38
-3.3828 -12.5744 6.511 1 126 39 38
-3.4022 -12.5837 6.5191 1 126 39 38
-3.4175 -12.5774 6.5175 1 126 39 38
-3.4316 -12.5667 6.5127 1 126 39 38
-3.4476 -12.5633 6.5142 1 126 39 38
-3.4632 -12.5567 6.512 1 126 39 38
-3.48 -12.5575 6.5162 1 126 39 38
-3.4963 -12.5535 6.5164 1 126 39 38
-3.5147 -12.5601 6.5201 1 126 39 38
-3.5321 -12.5612 6.525 1 126 39 38
-3.5458 -12.5496 6.5187 1 126 39 38
-3.5604 -12.5394 6.5178 1 126 39 38
-3.5767 -12.537 6.5179 1 126 39 38
-3.5936 -12.5365 6.519 1 126 39 38
-3.6099 -12.5339 6.522 1 126 39 38
-3.6286 -12.5394 6.5303 1 126 39 38
-3.6477 -12.5477 6.5334 1 126 39 38
-3.6661 -12.5505 6.5358 1 126 39 38
-3.6829 -12.5495 6.5433 1 126 39 38
-3.699 -12.5461 6.5434 1 126 39 38
-3.7143 -12.5413 6.5381 1 126 39 38
-3.7308 -12.5378 6.5444 1 126 39 38
-3.7476 -12.5364 6.5451 1 126 39 38
-3.7819 -12.5934 6.5769 1 126 39 38
-4.1003 -12.5039 6.5782 1 126 39 38
-4.1047 -12.4643 6.5606 1 126 39 38
-4.1216 -12.4629 6.5621 1 126 39 38
-4.1374 -12.4582 6.5639 1 126 39 38
-4.1537 -12.4548 6.5623 1 126 39 38
-4.1708 -12.4538 6.5702 1 126 39 38
-4.1866 -12.4493 6.566 1 126 39 38
-4.2023 -12.4441 6.5696 1 126 39 38
-4.2139 -12.427 6.5603 1 126 39 38
-4.2269 -12.4139 6.5598 1 126 39 38
-4.2429 -12.4099 6.561 1 126 39 38
-4.2586 -12.4047 6.5554 1 126 39 38
-4.2762 -12.4051 6.5631 1 126 39 38
-4.2915 -12.3989 6.5621 1 126 39 38
-4.3118 -12.407 6.5693 1 126 39 38
-4.3273 -12.4029 6.5709 1 126 39 38
-4.3414 -12.3918 6.567 1 126 39 38
-4.3563 -12.3846 6.5655 1 126 39 38
-4.3727 -12.3812 6.5672 1 126 39 38
-4.3894 -12.3791 6.569 1 126 39 38
-4.4047 -12.3728 6.5686 1 126 39 38
-4.4252 -12.3811 6.5765 1 126 39 38
-4.4434 -12.3829 6.5772 1 126 39 38
-4.4576 -12.3736 6.5763 1 126 39 38
-4.4713 -12.364 6.5736 1 126 39 38
-4.4877 -12.3597 6.5754 1 126 39 38
-4.5048 -12.3581 6.5765 1 126 39 38
-4.5206 -12.3533 6.577 1 126 39 38
-4.5399 -12.3579 6.583 1 126 39 38
-4.5634 -12.3739 6.593 1 126 39 38
-4.5804 -12.372 6.5956 1 126 39 38
-4.5973 -12.3697 6.5975 1 126 39 38
-4.614 -12.3671 6.5992 1 126 39 38
-4.63 -12.3624 6.6003 1 126 39 38
-4.6465 -12.3593 6.6053 1 126 39 38
-4.6627 -12.3553 6.6073 1 126 39 38
-4.6793 -12.3522 6.6016 1 126 39 38
-4.696 -12.3494 6.61 1 126 39 38
-4.7124 -12.3458 6.6107 1 126 39 38
-4.728 -12.34 6.6103 1 126 39 38
-4.7452 -12.3385 6.6126 1 126 39 38
-4.7619 -12.3358 6.6134 1 126 39 38
-4.7786 -12.3329 6.6166 1 126 39 38
-4.7953 -12.3299 6.6172 1 126 39 38
-4.8119 -12.3266 6.6119 1 126 39 38
-4.8281 -12.3224 6.6191 1 126 39 38
-4.8441 -12.3177 6.6193 1 126 39 38
-4.8605 -12.314 6.6211 1 126 39 38
-4.8768 -12.31 6.6223 1 126 39 38
-4.8938 -12.3077 6.6222 1 126 39 38
-4.9109 -12.3056 6.6271 1 126 39 38
-4.9275 -12.3021 6.6254 1 126 39 38
-4.9435 -12.2972 6.6282 1 126 39 38
-4.9617 -12.2979 6.6314 1 126 39 38
-4.9773 -12.292 6.6305 1 126 39 38
-4.9943 -12.2908 6.6352 1 126 39 38
-5.0104 -12.286 6.6329 1 126 39 38
-5.0278 -12.2845 6.6376 1 126 39 38
-5.0444 -12.2799 6.6376 1 126 39 38
-5.0609 -12.2762 6.639 1 126 39 38
-5.0773 -12.2722 6.6403 1 126 39 38
-5.0945 -12.27 6.6415 1 126 39 38
-5.1108 -12.2657 6.6432 1 126 39 38
-5.1224 -12.2502 6.6378 1 126 39 38
-5.1358 -12.239 6.6404 1 126 39 38
-5.1522 -12.235 6.6418 1 126 39 38
-5.1685 -12.2307 6.6372 1 126 39 38
-5.1855 -12.228 6.646 1 126 39 38
-5.2039 -12.2287 6.6421 1 126 39 38
-5.2232 -12.2313 6.6533 1 126 39 38
-5.24 -12.228 6.6546 1 126 39 38
-5.2531 -12.2163 6.6466 1 126 39 38
-5.2703 -12.2138 6.6551 1 126 39 38
-5.2865 -12.2093 6.6537 1 126 39 38
-5.303 -12.2053 6.6562 1 126 39 38
-5.3205 -12.2036 6.6583 1 126 39 38
-5.3412 -12.209 6.6645 1 126 39 38
-5.3581 -12.2059 6.6685 1 126 39 38
-5.3716 -12.195 6.6636 1 126 39 38
-5.3858 -12.1858 6.6633 1 126 39 38
-5.4028 -12.1837 6.6653 1 126 39 38
-5.4199 -12.1809 6.6654 1 126 39 38
-5.4387 -12.181 6.6724 1 126 39 38
-5.4596 -12.1867 6.6767 1 126 39 38
-5.4814 -12.1942 6.6851 1 126 39 38
-5.4987 -12.1916 6.6864 1 126 39 38
-5.5142 -12.1851 6.6866 1 126 39 38
-5.5319 -12.1836 6.6906 1 126 39 38
-5.5492 -12.181 6.6925 1 126 39 38
-5.5667 -12.1787 6.6946 1 126 39 38
-5.5829 -12.1736 6.6946 1 126 39 38
-5.5992 -12.1698 6.6962 1 126 39 38
-3.6155 -12.4939 6.4862 1 126 39 38
-3.6295 -12.485 6.4798 1 126 39 38
-3.6457 -12.4807 6.479 1 126 39 38
-3.6728 -12.5152 6.5049 1 126 39 38
-3.6865 -12.5036 6.5008 1 126 39 38
-3.6966 -12.4816 6.4866 1 126 39 38
-3.7229 -12.5112 6.5096 1 126 39 38
-3.7403 -12.5121 6.512 1 126 39 38
-3.7556 -12.5058 6.5106 1 126 39 38
-3.774 -12.5102 6.5164 1 126 39 38
-3.791 -12.5111 6.5177 1 126 39 38
-3.8118 -12.5215 6.5278 1 126 39 38
-3.8201 -12.4924 6.5069 1 126 39 38
-3.8431 -12.5113 6.5259 1 126 39 38
-3.851 -12.481 6.507 1 126 39 38
-3.8819 -12.5266 6.5374 1 126 39 38
-3.9011 -12.5317 6.5442 1 126 39 38
-3.9129 -12.5141 6.535 1 126 39 38
-3.9383 -12.5399 6.5526 1 126 39 38
-3.949 -12.5191 6.5433 1 126 39 38
-3.9709 -12.5336 6.5535 1 126 39 38
-3.9787 -12.5036 6.5425 1 126 39 38
-3.9925 -12.4926 6.5363 1 126 39 38
-4.0096 -12.492 6.5396 1 126 39 38
-4.0262 -12.4895 6.5404 1 126 39 38
-4.0445 -12.4925 6.5441 1 126 39 38
-4.0826 -12.503 6.5539 1 126 39 38
-4.0888 -12.4688 6.5392 1 126 39 38
-4.1044 -12.4636 6.5397 1 126 39 38
-4.1215 -12.4627 6.5414 1 126 39 38
-4.137 -12.4569 6.5426 1 126 39 38
-4.1546 -12.4576 6.5432 1 126 39 38
-4.1709 -12.4542 6.5498 1 126 39 38
-4.1874 -12.4517 6.5466 1 126 39 38
-4.2029 -12.4458 6.5499 1 126 39 38
-4.2138 -12.4266 6.54 1 126 39 38
-4.2278 -12.4166 6.5401 1 126 39 38
-4.2433 -12.4108 6.5404 1 126 39 38
-4.2595 -12.4075 6.5368 1 126 39 38
-4.275 -12.4017 6.5402 1 126 39 38
-4.2925 -12.4019 6.5432 1 126 39 38
-4.3116 -12.4066 6.5485 1 126 39 38
-4.3284 -12.406 6.552 1 126 39 38
-4.3412 -12.3912 6.5461 1 126 39 38
-4.3572 -12.3871 6.5463 1 126 39 38
-4.373 -12.382 6.5465 1 126 39 38
-4.3894 -12.3789 6.5477 1 126 39 38
-4.4059 -12.376 6.5497 1 126 39 38
-4.4248 -12.3799 6.5552 1 126 39 38
-4.4433 -12.3827 6.5565 1 126 39 38
-4.4566 -12.3707 6.5541 1 126 39 38
-4.471 -12.3632 6.5521 1 126 39 38
-4.4878 -12.3598 6.5549 1 126 39 38
-4.5045 -12.3575 6.5561 1 126 39 38
-4.5216 -12.3561 6.5579 1 126 39 38
-4.5407 -12.3601 6.5635 1 126 39 38
-4.5637 -12.3747 6.5728 1 126 39 38
-4.5801 -12.3712 6.575 1 126 39 38
-4.5974 -12.3701 6.5769 1 126 39 38
-4.6134 -12.3655 6.5776 1 126 39 38
-4.6307 -12.3643 6.5806 1 126 39 38
-4.6468 -12.3601 6.585 1 126 39 38
-4.663 -12.356 6.5876 1 126 39 38
-4.6785 -12.3501 6.5798 1 126 39 38
-4.6954 -12.3477 6.5884 1 126 39 38
-4.7116 -12.3436 6.5893 1 126 39 38
-4.7287 -12.3419 6.5905 1 126 39 38
-4.7443 -12.3362 6.5907 1 126 39 38
-4.762 -12.336 6.5927 1 126 39 38
-4.7783 -12.3321 6.5954 1 126 39 38
-4.7952 -12.3295 6.5967 1 126 39 38
-4.8107 -12.3237 6.5896 1 126 39 38
-4.8274 -12.3207 6.5975 1 126 39 38
-4.8446 -12.3189 6.5987 1 126 39 38
-4.861 -12.3152 6.601 1 126 39 38
-4.8768 -12.3098 6.6014 1 126 39 38
-4.8943 -12.3089 6.6021 1 126 39 38
-4.9101 -12.3036 6.6052 1 126 39 38
-4.9275 -12.3022 6.6046 1 126 39 38
-4.9445 -12.2997 6.6092 1 126 39 38
-4.9598 -12.2931 6.608 1 126 39 38
-4.9773 -12.2919 6.6097 1 126 39 38
-4.9937 -12.2892 6.6136 1 126 39 38
-5.0109 -12.2874 6.6128 1 126 39 38
-5.0272 -12.2829 6.6159 1 126 39 38
-5.0445 -12.2801 6.6169 1 126 39 38
-5.0617 -12.2782 6.6193 1 126 39 38
-5.0779 -12.2735 6.6202 1 126 39 38
-5.0938 -12.2683 6.6192 1 126 39 38
-5.11 -12.2638 6.6218 1 126 39 38
-5.1207 -12.2463 6.6148 1 126 39 38
-5.1355 -12.2382 6.6191 1 126 39 38
-5.1506 -12.2313 6.6189 1 126 39 38
-5.1683 -12.2301 6.6155 1 126 39 38
-5.1847 -12.2263 6.6242 1 126 39 38
-5.203 -12.2266 6.6207 1 126 39 38
-5.2239 -12.2329 6.6334 1 126 39 38
-5.2399 -12.2278 6.6336 1 126 39 38
-5.2526 -12.2151 6.6251 1 126 39 38
-5.2689 -12.2106 6.6325 1 126 39 38
-5.286 -12.208 6.6321 1 126 39 38
-5.3025 -12.2042 6.6347 1 126 39 38
-5.3202 -12.2029 6.6371 1 126 39 38
-5.3413 -12.2093 6.6432 1 126 39 38
-5.3577 -12.2049 6.6471 1 126 39 38
-5.3713 -12.1943 6.6424 1 126 39 38
-5.3863 -12.1869 6.6431 1 126 39 38
-5.4031 -12.1844 6.6447 1 126 39 38
-5.4194 -12.18 6.644 1 126 39 38
-5.4382 -12.18 6.6509 1 126 39 38
-5.4599 -12.1873 6.656 1 126 39 38
-5.481 -12.1933 6.6636 1 126 39 38
-5.4982 -12.1906 6.6648 1 126 39 38
-5.5151 -12.1871 6.6667 1 126 39 38
-5.5324 -12.1846 6.6702 1 126 39 38
-5.5487 -12.1797 6.6703 1 126 39 38
-5.5664 -12.1781 6.6732 1 126 39 38
-5.5828 -12.1734 6.6739 1 126 39 38
-5.5986 -12.1685 6.6751 1 126 39 38
-3.7893 -12.4475 6.4688 1 126 39 38
-3.8209 -12.4391 6.4679 1 126 39 38
-3.8531 -12.4337 6.4685 1 126 39 38
-3.8691 -12.4288 6.4706 1 126 39 38
-3.8853 -12.4258 6.469 1 126 39 38
-3.9021 -12.4248 6.472 1 126 39 38
-3.9177 -12.4196 6.4709 1 126 39 38
-3.9342 -12.4177 6.472 1 126 39 38
-3.9513 -12.4173 6.4769 1 126 39 38
-3.9669 -12.4123 6.4743 1 126 39 38
-3.9835 -12.4105 6.4765 1 126 39 38
-3.9987 -12.4043 6.4748 1 126 39 38
-4.0164 -12.4059 6.4783 1 126 39 38
-4.033 -12.4039 6.4819 1 126 39 38
-4.0479 -12.3967 6.4778 1 126 39 38
-4.0651 -12.3967 6.4809 1 126 39 38
-4.0834 -12.3996 6.4856 1 126 39 38
-4.0988 -12.394 6.4849 1 126 39 38
-4.1168 -12.3962 6.4903 1 126 39 38
-4.1317 -12.3889 6.4872 1 126 39 38
-4.1587 -12.4179 6.5102 1 126 39 38
-4.1676 -12.3928 6.4951 1 126 39 38
-4.1932 -12.417 6.5142 1 126 39 38
-4.2054 -12.4019 6.506 1 126 39 38
-4.2244 -12.4066 6.5148 1 126 39 38
-4.2418 -12.4066 6.5181 1 126 39 38
-4.2546 -12.3931 6.5082 1 126 39 38
-4.2756 -12.4034 6.521 1 126 39 38
-4.2913 -12.3984 6.5207 1 126 39 38
-4.3113 -12.4057 6.5274 1 126 39 38
-4.3278 -12.4041 6.5304 1 126 39 38
-4.3417 -12.3927 6.5263 1 126 39 38
-4.3566 -12.3852 6.5247 1 126 39 38
-4.3731 -12.3823 6.5261 1 126 39 38
-4.3892 -12.3784 6.5274 1 126 39 38
-4.4054 -12.3748 6.5279 1 126 39 38
-4.425 -12.3806 6.535 1 126 39 38
-4.4438 -12.384 6.5366 1 126 39 38
-4.4576 -12.3735 6.535 1 126 39 38
-4.471 -12.3632 6.532 1 126 39 38
-4.488 -12.3605 6.5346 1 126 39 38
-4.5049 -12.3585 6.5355 1 126 39 38
-4.5212 -12.355 6.5367 1 126 39 38
-4.5399 -12.358 6.5418 1 126 39 38
-4.5636 -12.3742 6.5518 1 126 39 38
-4.5799 -12.3706 6.5535 1 126 39 38
-4.597 -12.3689 6.5556 1 126 39 38
-4.6134 -12.3654 6.5568 1 126 39 38
-4.6288 -12.3594 6.5573 1 126 39 38
-4.6462 -12.3585 6.5635 1 126 39 38
-4.6627 -12.3552 6.5659 1 126 39 38
-4.6794 -12.3524 6.5603 1 126 39 38
-4.6952 -12.3473 6.5674 1 126 39 38
-4.7112 -12.3426 6.5681 1 126 39 38
-4.7289 -12.3424 6.5701 1 126 39 38
-4.7451 -12.3384 6.5711 1 126 39 38
-4.7611 -12.3336 6.5707 1 126 39 38
-4.7776 -12.3303 6.5737 1 126 39 38
-4.7936 -12.3255 6.5733 1 126 39 38
-4.8116 -12.326 6.5701 1 126 39 38
-4.8286 -12.3236 6.5782 1 126 39 38
-4.8442 -12.3179 6.5779 1 126 39 38
-4.8608 -12.3148 6.58 1 126 39 38
-4.8768 -12.3097 6.5806 1 126 39 38
-4.8938 -12.3075 6.5806 1 126 39 38
-4.9102 -12.3038 6.5845 1 126 39 38
-4.9264 -12.2994 6.5823 1 126 39 38
-4.9441 -12.2987 6.5874 1 126 39 38
-4.9606 -12.2952 6.5884 1 126 39 38
-4.9767 -12.2906 6.5882 1 126 39 38
-4.9929 -12.2872 6.5917 1 126 39 38
-5.0103 -12.2859 6.5912 1 126 39 38
-5.0272 -12.283 6.5952 1 126 39 38
-5.0447 -12.2807 6.5964 1 126 39 38
-5.061 -12.2765 6.5975 1 126 39 38
-5.077 -12.2714 6.5982 1 126 39 38
-5.0943 -12.2695 6.5996 1 126 39 38
-5.1098 -12.2633 6.6007 1 126 39 38
-5.1207 -12.2461 6.5939 1 126 39 38
-5.1353 -12.2379 6.5981 1 126 39 38
-5.1502 -12.2303 6.5976 1 126 39 38
-5.1678 -12.2289 6.5946 1 126 39 38
-5.1844 -12.2254 6.603 1 126 39 38
-5.2029 -12.2263 6.5992 1 126 39 38
-5.2238 -12.2328 6.6124 1 126 39 38
-5.24 -12.228 6.6129 1 126 39 38
-5.2532 -12.2165 6.605 1 126 39 38
-5.2687 -12.2102 6.6115 1 126 39 38
-5.2855 -12.2069 6.6106 1 126 39 38
-5.302 -12.203 6.6132 1 126 39 38
-5.3198 -12.202 6.6157 1 126 39 38
-5.3413 -12.2092 6.6228 1 126 39 38
-5.3575 -12.2045 6.6259 1 126 39 38
-5.371 -12.1936 6.6211 1 126 39 38
-5.3863 -12.1869 6.6222 1 126 39 38
-5.4033 -12.185 6.6237 1 126 39 38
-5.4199 -12.181 6.6236 1 126 39 38
-5.4382 -12.1798 6.6299 1 126 39 38
-5.4596 -12.1867 6.6353 1 126 39 38
-5.4815 -12.1943 6.6432 1 126 39 38
-5.4981 -12.1904 6.6438 1 126 39 38
-5.5155 -12.1881 6.6463 1 126 39 38
-5.5329 -12.1856 6.6498 1 126 39 38
-5.5495 -12.1815 6.6508 1 126 39 38
-5.5657 -12.1766 6.6514 1 126 39 38
-5.583 -12.1738 6.6532 1 126 39 38
-5.5986 -12.1686 6.6536 1 126 39 38
-3.8215 -12.441 6.4485 1 126 39 38
-3.8372 -12.4364 6.443 1 126 39 38
-3.8533 -12.4346 6.4486 1 126 39 38
-3.9021 -12.4246 6.4515 1 126 39 38
-3.9178 -12.4201 6.4502 1 126 39 38
-3.934 -12.4171 6.4517 1 126 39 38
-3.9502 -12.414 6.4548 1 126 39 38
-3.9658 -12.409 6.4517 1 126 39 38
-3.9823 -12.4067 6.4541 1 126 39 38
-3.9979 -12.4017 6.4536 1 126 39 38
-4.0144 -12.3996 6.4546 1 126 39 38
-4.031 -12.3977 6.4583 1 126 39 38
-4.047 -12.394 6.456 1 126 39 38
-4.0632 -12.3907 6.4579 1 126 39 38
-4.0804 -12.3906 6.461 1 126 39 38
-4.0961 -12.3858 6.4602 1 126 39 38
-4.1114 -12.3798 6.4613 1 126 39 38
-4.1286 -12.3796 6.4613 1 126 39 38
-4.1446 -12.3756 6.4676 1 126 39 38
-4.1607 -12.3721 6.4639 1 126 39 38
-4.1765 -12.3678 6.4679 1 126 39 38
-4.1934 -12.3663 6.4674 1 126 39 38
-4.2096 -12.3631 6.471 1 126 39 38
-4.2256 -12.3592 6.4722 1 126 39 38
-4.2412 -12.3541 6.4678 1 126 39 38
-4.2575 -12.351 6.473 1 126 39 38
-4.274 -12.3484 6.474 1 126 39 38
-4.2915 -12.3486 6.4769 1 126 39 38
-4.3081 -12.3477 6.4802 1 126 39 38
-4.325 -12.345 6.4812 1 126 39 38
-4.3399 -12.3377 6.4792 1 126 39 38
-4.3573 -12.3377 6.4826 1 126 39 38
-4.3741 -12.336 6.4841 1 126 39 38
-4.3909 -12.334 6.4864 1 126 39 38
-4.4106 -12.3402 6.4931 1 126 39 38
-4.428 -12.3401 6.4929 1 126 39 38
-4.4474 -12.3451 6.4995 1 126 39 38
-4.4616 -12.3373 6.4972 1 126 39 38
-4.4819 -12.3434 6.505 1 126 39 38
-4.4978 -12.339 6.5052 1 126 39 38
-4.5175 -12.3448 6.5107 1 126 39 38
-4.5379 -12.3525 6.5188 1 126 39 38
-4.5612 -12.3677 6.5278 1 126 39 38
-4.5791 -12.3683 6.5322 1 126 39 38
-4.5935 -12.3595 6.53 1 126 39 38
-4.6115 -12.3605 6.5341 1 126 39 38
-4.6285 -12.3586 6.5362 1 126 39 38
-4.6462 -12.3584 6.5428 1 126 39 38
-4.6623 -12.3541 6.5452 1 126 39 38
-4.6785 -12.3502 6.5384 1 126 39 38
-4.6946 -12.3458 6.5459 1 126 39 38
-4.7122 -12.3454 6.5489 1 126 39 38
-4.7285 -12.3414 6.5489 1 126 39 38
-4.7454 -12.3391 6.5508 1 126 39 38
-4.761 -12.3334 6.5499 1 126 39 38
-4.7777 -12.3305 6.5526 1 126 39 38
-4.7946 -12.3281 6.554 1 126 39 38
-4.8108 -12.3238 6.5487 1 126 39 38
-4.827 -12.3195 6.5554 1 126 39 38
-4.8437 -12.3166 6.5565 1 126 39 38
-4.8601 -12.3129 6.5583 1 126 39 38
-4.8766 -12.3093 6.5597 1 126 39 38
-4.8934 -12.3065 6.5593 1 126 39 38
-4.9099 -12.3031 6.5639 1 126 39 38
-4.9268 -12.3004 6.5627 1 126 39 38
-4.9433 -12.2969 6.5662 1 126 39 38
-4.9604 -12.2947 6.5678 1 126 39 38
-4.977 -12.2914 6.5679 1 126 39 38
-4.9925 -12.2863 6.5705 1 126 39 38
-5.0101 -12.2852 6.5701 1 126 39 38
-5.0276 -12.2841 6.575 1 126 39 38
-5.0438 -12.2784 6.5744 1 126 39 38
-5.0599 -12.2738 6.5753 1 126 39 38
-5.0775 -12.2727 6.5781 1 126 39 38
-5.0937 -12.2682 6.5776 1 126 39 38
-5.1098 -12.2634 6.58 1 126 39 38
-5.1207 -12.2462 6.5732 1 126 39 38
-5.1333 -12.2331 6.5748 1 126 39 38
-5.1508 -12.2318 6.5776 1 126 39 38
-5.1674 -12.2281 6.5734 1 126 39 38
-5.1843 -12.2253 6.5821 1 126 39 38
-5.2021 -12.2243 6.5778 1 126 39 38
-5.2236 -12.2321 6.5913 1 126 39 38
-5.2393 -12.2263 6.5912 1 126 39 38
-5.2525 -12.2149 6.5834 1 126 39 38
-5.2689 -12.2107 6.5914 1 126 39 38
-5.286 -12.208 6.5904 1 126 39 38
-5.3022 -12.2034 6.5926 1 126 39 38
-5.3199 -12.2022 6.595 1 126 39 38
-5.3413 -12.2092 6.6014 1 126 39 38
-5.3564 -12.2021 6.6038 1 126 39 38
-5.3704 -12.1922 6.5995 1 126 39 38
-5.3868 -12.1879 6.6018 1 126 39 38
-5.4032 -12.1848 6.6032 1 126 39 38
-5.419 -12.179 6.6017 1 126 39 38
-5.4376 -12.1785 6.6083 1 126 39 38
-5.4591 -12.1855 6.6132 1 126 39 38
-5.4816 -12.1947 6.6225 1 126 39 38
-5.4989 -12.1922 6.6233 1 126 39 38
-5.5151 -12.1872 6.6249 1 126 39 38
-5.5321 -12.1838 6.6279 1 126 39 38
-5.5492 -12.1808 6.629 1 126 39 38
-5.5656 -12.1763 6.6303 1 126 39 38
-5.5833 -12.1745 6.6326 1 126 39 38
-5.599 -12.1694 6.6336 1 126 39 38
-2.1977 -12.8187 6.4176 1 126 39 38
-2.2456 -12.8079 6.4215 1 126 39 38
-2.2617 -12.8026 6.4208 1 126 39 38
-2.2776 -12.801 6.4199 1 126 39 38
-2.2934 -12.7964 6.42 1 126 39 38
-2.3098 -12.7933 6.42 1 126 39 38
-2.3255 -12.7907 6.4191 1 126 39 38
-2.3418 -12.7887 6.4195 1 126 39 38
-2.3577 -12.7849 6.4181 1 126 39 38
-2.743 -12.7099 6.4166 1 126 39 38
-2.7588 -12.7053 6.4196 1 126 39 38
-2.774 -12.6984 6.4204 1 126 39 38
-2.7901 -12.6976 6.4196 1 126 39 38
-2.8063 -12.6932 6.4203 1 126 39 38
-2.8225 -12.6911 6.4194 1 126 39 38
-2.8384 -12.687 6.4197 1 126 39 38
-2.8539 -12.6815 6.4202 1 126 39 38
-2.8707 -12.6819 6.4197 1 126 39 38
-2.8867 -12.6804 6.4208 1 126 39 38
-2.9022 -12.6748 6.4207 1 126 39 38
-2.9178 -12.6695 6.4194 1 126 39 38
-2.9338 -12.6663 6.4212 1 126 39 38
-2.9501 -12.6643 6.4195 1 126 39 38
-2.9645 -12.6525 6.4215 1 126 39 38
-2.9821 -12.6556 6.4204 1 126 39 38
-2.9984 -12.6539 6.421 1 126 39 38
-3.0141 -12.6508 6.4213 1 126 39 38
-3.0297 -12.646 6.4198 1 126 39 38
-3.0444 -12.6371 6.4228 1 126 39 38
-3.062 -12.6384 6.4204 1 126 39 38
-3.0776 -12.6354 6.4187 1 126 39 38
-3.0939 -12.6313 6.4202 1 126 39 38
-3.1101 -12.629 6.4204 1 126 39 38
-3.1237 -12.6158 6.4208 1 126 39 38
-3.1412 -12.6202 6.4205 1 126 39 38
-3.158 -12.6182 6.4194 1 126 39 38
-3.1734 -12.6126 6.4196 1 126 39 38
-3.1898 -12.6108 6.4202 1 126 39 38
-3.2024 -12.5939 6.4198 1 126 39 38
-3.2211 -12.6009 6.4193 1 126 39 38
-3.2349 -12.5889 6.4204 1 126 39 38
-3.2528 -12.5945 6.4207 1 126 39 38
-3.2668 -12.5836 6.4202 1 126 39 38
-3.2803 -12.5689 6.4164 1 126 39 38
-3.455 -12.527 6.4152 1 126 39 38
-3.5021 -12.5149 6.4157 1 126 39 38
-3.5339 -12.5075 6.4154 1 126 39 38
-3.5502 -12.5035 6.4178 1 126 39 38
-3.5668 -12.5023 6.4184 1 126 39 38
-3.5824 -12.4972 6.4171 1 126 39 38
-3.5983 -12.4934 6.4195 1 126 39 38
-3.6299 -12.4866 6.4201 1 126 39 38
-3.6477 -12.4877 6.4216 1 126 39 38
-3.6777 -12.474 6.4248 1 126 39 38
-3.6955 -12.4776 6.4234 1 126 39 38
-3.7096 -12.4664 6.4257 1 126 39 38
-3.7418 -12.4599 6.4256 1 126 39 38
-3.7897 -12.4489 6.4288 1 126 39 38
-3.8077 -12.4518 6.4246 1 126 39 38
-3.8217 -12.4415 6.4284 1 126 39 38
-3.839 -12.4422 6.4256 1 126 39 38
-3.853 -12.4335 6.4277 1 126 39 38
-3.8695 -12.43 6.4305 1 126 39 38
-3.8855 -12.4263 6.4286 1 126 39 38
-3.9017 -12.4236 6.4307 1 126 39 38
-3.9181 -12.4211 6.4309 1 126 39 38
-3.9341 -12.4174 6.4311 1 126 39 38
-3.95 -12.4131 6.434 1 126 39 38
-3.966 -12.4096 6.4321 1 126 39 38
-3.9825 -12.4073 6.4341 1 126 39 38
-3.9986 -12.4038 6.4338 1 126 39 38
-4.0145 -12.3998 6.4344 1 126 39 38
-4.0308 -12.3971 6.4376 1 126 39 38
-4.047 -12.394 6.4356 1 126 39 38
-4.063 -12.3902 6.4368 1 126 39 38
-4.0791 -12.3866 6.4381 1 126 39 38
-4.0963 -12.3864 6.4401 1 126 39 38
-4.1115 -12.3801 6.4416 1 126 39 38
-4.1281 -12.378 6.4406 1 126 39 38
-4.1446 -12.3758 6.4473 1 126 39 38
-4.1607 -12.3721 6.4435 1 126 39 38
-4.1766 -12.368 6.4476 1 126 39 38
-4.1924 -12.3634 6.445 1 126 39 38
-4.2086 -12.3601 6.4495 1 126 39 38
-4.2251 -12.3578 6.4516 1 126 39 38
-4.2414 -12.3545 6.4471 1 126 39 38
-4.2573 -12.3504 6.4523 1 126 39 38
-4.2739 -12.3482 6.4534 1 126 39 38
-4.2902 -12.345 6.4546 1 126 39 38
-4.3065 -12.343 6.4573 1 126 39 38
-4.3219 -12.336 6.456 1 126 39 38
-4.3385 -12.3338 6.4567 1 126 39 38
-4.3555 -12.3325 6.4594 1 126 39 38
-4.3713 -12.328 6.4599 1 126 39 38
-4.3876 -12.3246 6.461 1 126 39 38
-4.4043 -12.3226 6.4634 1 126 39 38
-4.4205 -12.3189 6.4613 1 126 39 38
-4.4372 -12.3169 6.4647 1 126 39 38
-4.4528 -12.3127 6.4643 1 126 39 38
-4.4697 -12.3101 6.467 1 126 39 38
-4.4853 -12.3048 6.4662 1 126 39 38
-4.5015 -12.3012 6.4672 1 126 39 38
-4.5181 -12.2986 6.4694 1 126 39 38
-4.5357 -12.2987 6.4709 1 126 39 38
-4.5521 -12.2956 6.4732 1 126 39 38
-4.5667 -12.2875 6.4715 1 126 39 38
-4.5845 -12.2881 6.4749 1 126 39 38
-4.6012 -12.2857 6.4776 1 126 39 38
-4.6205 -12.2902 6.4867 1 126 39 38
-4.6428 -12.3025 6.4968 1 126 39 38
-4.6506 -12.2764 6.4789 1 126 39 38
-4.6783 -12.3027 6.5025 1 126 39 38
-4.6996 -12.3122 6.5107 1 126 39 38
-4.717 -12.3114 6.5123 1 126 39 38
-4.7376 -12.3187 6.5193 1 126 39 38
-4.754 -12.3153 6.5197 1 126 39 38
-4.7753 -12.3242 6.5291 1 126 39 38
-4.7915 -12.32 6.5291 1 126 39 38
-4.8008 -12.2982 6.514 1 126 39 38
-4.8262 -12.3177 6.5337 1 126 39 38
-4.8429 -12.3145 6.5347 1 126 39 38
-4.8603 -12.3133 6.5378 1 126 39 38
-4.876 -12.3077 6.5381 1 126 39 38
-4.893 -12.3054 6.5381 1 126 39 38
-4.91 -12.3033 6.5428 1 126 39 38
-4.9266 -12.3 6.5413 1 126 39 38
-4.9433 -12.2967 6.5449 1 126 39 38
-4.9599 -12.2934 6.5459 1 126 39 38
-4.9762 -12.2892 6.546 1 126 39 38
-4.9925 -12.2863 6.5497 1 126 39 38
-5.0097 -12.2844 6.5489 1 126 39 38
-5.0263 -12.281 6.5526 1 126 39 38
-5.0433 -12.2773 6.553 1 126 39 38
-5.0603 -12.2746 6.555 1 126 39 38
-5.0768 -12.271 6.5565 1 126 39 38
-5.0932 -12.267 6.5567 1 126 39 38
-5.1108 -12.2658 6.5605 1 126 39 38
-5.1201 -12.2446 6.5516 1 126 39 38
-5.1343 -12.2353 6.5553 1 126 39 38
-5.1503 -12.2304 6.5561 1 126 39 38
-5.1676 -12.2285 6.5528 1 126 39 38
-5.1849 -12.2266 6.5621 1 126 39 38
-5.202 -12.2241 6.5569 1 126 39 38
-5.2235 -12.2321 6.5705 1 126 39 38
-5.2392 -12.2262 6.5709 1 126 39 38
-5.2522 -12.2141 6.5621 1 126 39 38
-5.2692 -12.2114 6.5705 1 126 39 38
-5.2859 -12.2078 6.57 1 126 39 38
-5.3025 -12.204 6.5721 1 126 39 38
-5.3205 -12.2036 6.5755 1 126 39 38
-5.341 -12.2087 6.5808 1 126 39 38
-5.3565 -12.2023 6.5831 1 126 39 38
-5.3701 -12.1916 6.5783 1 126 39 38
-5.3864 -12.1871 6.5806 1 126 39 38
-5.4019 -12.1817 6.5807 1 126 39 38
-5.4198 -12.1808 6.5823 1 126 39 38
-5.4381 -12.1796 6.5881 1 126 39 38
-5.4593 -12.186 6.5932 1 126 39 38
-5.481 -12.1932 6.6008 1 126 39 38
-5.4981 -12.1903 6.6019 1 126 39 38
-5.5155 -12.1881 6.6044 1 126 39 38
-5.5323 -12.1844 6.6073 1 126 39 38
-5.5492 -12.181 6.6086 1 126 39 38
-5.5663 -12.1778 6.6102 1 126 39 38
-5.5831 -12.174 6.6114 1 126 39 38
-5.5987 -12.1688 6.6123 1 126 39 38
-2.1669 -12.8322 6.4064 1 126 39 38
-2.1827 -12.8277 6.4065 1 126 39 38
-2.1986 -12.8238 6.3998 1 126 39 38
-2.2144 -12.8192 6.4046 1 126 39 38
-2.2304 -12.8156 6.4052 1 126 39 38
-2.2464 -12.8123 6.4034 1 126 39 38
-2.2629 -12.8097 6.404 1 126 39 38
-2.2784 -12.8059 6.4025 1 126 39 38
-2.2946 -12.8036 6.4033 1 126 39 38
-2.3108 -12.7988 6.4019 1 126 39 38
-2.3264 -12.7954 6.4011 1 126 39 38
-2.3424 -12.792 6.4009 1 126 39 38
-2.358 -12.7868 6.3987 1 126 39 38
-2.3733 -12.7774 6.3971 1 126 39 38
-2.421 -12.7657 6.3957 1 126 39 38
-2.4375 -12.7648 6.3948 1 126 39 38
-2.4859 -12.7571 6.3956 1 126 39 38
-2.501 -12.7515 6.3953 1 126 39 38
-2.549 -12.7418 6.3937 1 126 39 38
-2.6137 -12.732 6.3963 1 126 39 38
-2.6595 -12.7116 6.3946 1 126 39 38
-2.678 -12.7203 6.3956 1 126 39 38
-2.725 -12.7038 6.3975 1 126 39 38
-2.7431 -12.7101 6.3963 1 126 39 38
-2.7599 -12.7108 6.402 1 126 39 38
-2.7751 -12.7037 6.4027 1 126 39 38
-2.791 -12.7015 6.4018 1 126 39 38
-2.8074 -12.698 6.4024 1 126 39 38
-2.8234 -12.6949 6.4016 1 126 39 38
-2.8393 -12.6909 6.4008 1 126 39 38
-2.8555 -12.6887 6.4036 1 126 39 38
-2.8715 -12.6855 6.4012 1 126 39 38
-2.8874 -12.6834 6.402 1 126 39 38
-2.9034 -12.6798 6.403 1 126 39 38
-2.919 -12.675 6.4019 1 126 39 38
-2.9353 -12.6729 6.4037 1 126 39 38
-2.9513 -12.6695 6.4013 1 126 39 38
-2.9679 -12.6668 6.4085 1 126 39 38
-2.984 -12.664 6.4039 1 126 39 38
-3.0001 -12.6609 6.4042 1 126 39 38
-3.0155 -12.6566 6.4039 1 126 39 38
-3.0315 -12.6534 6.4032 1 126 39 38
-3.0475 -12.65 6.409 1 126 39 38
-3.0641 -12.647 6.4044 1 126 39 38
-3.0798 -12.6441 6.4033 1 126 39 38
-3.0961 -12.6402 6.4043 1 126 39 38
-3.1122 -12.6374 6.4039 1 126 39 38
-3.1278 -12.6321 6.4088 1 126 39 38
-3.1435 -12.6293 6.4042 1 126 39 38
-3.1601 -12.6268 6.4035 1 126 39 38
-3.1762 -12.6236 6.4049 1 126 39 38
-3.1924 -12.6209 6.4046 1 126 39 38
-3.2081 -12.6164 6.4109 1 126 39 38
-3.2244 -12.614 6.4057 1 126 39 38
-3.2402 -12.6095 6.4111 1 126 39 38
-3.256 -12.6069 6.4067 1 126 39 38
-3.2721 -12.6039 6.4108 1 126 39 38
-3.283 -12.5792 6.4019 1 126 39 38
-3.2976 -12.5706 6.3971 1 126 39 38
-3.3133 -12.5661 6.3979 1 126 39 38
-3.3289 -12.5611 6.397 1 126 39 38
-3.3458 -12.5611 6.3991 1 126 39 38
-3.3612 -12.5557 6.3985 1 126 39 38
-3.377 -12.5529 6.3982 1 126 39 38
-3.3931 -12.5499 6.3998 1 126 39 38
-3.4093 -12.5473 6.4002 1 126 39 38
-3.4249 -12.5421 6.3982 1 126 39 38
-3.4406 -12.5376 6.3991 1 126 39 38
-3.4578 -12.5372 6.4002 1 126 39 38
-3.4728 -12.5315 6.4009 1 126 39 38
-3.4889 -12.5268 6.4003 1 126 39 38
-3.5043 -12.5227 6.3989 1 126 39 38
-3.5199 -12.5177 6.4012 1 126 39 38
-3.5371 -12.5186 6.4013 1 126 39 38
-3.5526 -12.5119 6.4017 1 126 39 38
-3.5683 -12.5075 6.4008 1 126 39 38
-3.5853 -12.5073 6.4025 1 126 39 38
-3.6001 -12.4998 6.4024 1 126 39 38
-3.6158 -12.4951 6.4059 1 126 39 38
-3.6318 -12.4929 6.403 1 126 39 38
-3.6583 -12.5256 6.4206 1 126 39 38
-3.6724 -12.5139 6.4226 1 126 39 38
-3.6874 -12.5066 6.4207 1 126 39 38
-3.7056 -12.512 6.4208 1 126 39 38
-3.7194 -12.4993 6.4218 1 126 39 38
-3.7357 -12.4966 6.4223 1 126 39 38
-3.752 -12.4939 6.4228 1 126 39 38
-3.7673 -12.488 6.4232 1 126 39 38
-3.7831 -12.4849 6.4225 1 126 39 38
-3.7982 -12.4769 6.4229 1 126 39 38
-3.8178 -12.4849 6.4214 1 126 39 38
-3.8308 -12.4714 6.4235 1 126 39 38
-3.8493 -12.4755 6.4225 1 126 39 38
-3.8627 -12.4649 6.4235 1 126 39 38
-3.8781 -12.4578 6.4239 1 126 39 38
-3.8946 -12.4556 6.4233 1 126 39 38
-3.9099 -12.4494 6.4237 1 126 39 38
-3.9269 -12.449 6.425 1 126 39 38
-3.9427 -12.4444 6.4252 1 126 39 38
-3.9567 -12.4343 6.4246 1 126 39 38
-3.9744 -12.436 6.4249 1 126 39 38
-3.9886 -12.4263 6.4235 1 126 39 38
-4.0051 -12.424 6.4245 1 126 39 38
-4.0207 -12.4189 6.4239 1 126 39 38
-4.0359 -12.4126 6.4253 1 126 39 38
-4.0533 -12.4132 6.4252 1 126 39 38
-4.069 -12.4083 6.4258 1 126 39 38
-4.0855 -12.4059 6.4277 1 126 39 38
-4.1006 -12.3993 6.4265 1 126 39 38
-4.1158 -12.3931 6.4274 1 126 39 38
-4.1319 -12.3893 6.4256 1 126 39 38
-4.1455 -12.3785 6.4283 1 126 39 38
-4.1626 -12.3778 6.4261 1 126 39 38
-4.1776 -12.3709 6.4288 1 126 39 38
-4.1942 -12.3689 6.4279 1 126 39 38
-4.2099 -12.3639 6.4306 1 126 39 38
-4.2255 -12.3587 6.4312 1 126 39 38
-4.2427 -12.3585 6.4293 1 126 39 38
-4.2576 -12.3512 6.4323 1 126 39 38
-4.2745 -12.3499 6.4339 1 126 39 38
-4.2901 -12.3446 6.4339 1 126 39 38
-4.3059 -12.3415 6.4361 1 126 39 38
-4.3228 -12.3386 6.437 1 126 39 38
-4.3388 -12.3348 6.4368 1 126 39 38
-4.3551 -12.3313 6.4384 1 126 39 38
-4.3719 -12.3297 6.4399 1 126 39 38
-4.3883 -12.3266 6.4416 1 126 39 38
-4.4042 -12.3222 6.4427 1 126 39 38
-4.4209 -12.3201 6.442 1 126 39 38
-4.4367 -12.3156 6.443 1 126 39 38
-4.4527 -12.3124 6.4432 1 126 39 38
-4.4693 -12.3087 6.4458 1 126 39 38
-4.4856 -12.3054 6.4465 1 126 39 38
-4.5023 -12.3032 6.4478 1 126 39 38
-4.5186 -12.2998 6.45 1 126 39 38
-4.5348 -12.2961 6.449 1 126 39 38
-4.5523 -12.2959 6.453 1 126 39 38
-4.5675 -12.2896 6.4521 1 126 39 38
-4.583 -12.2839 6.4527 1 126 39 38
-4.6001 -12.2828 6.4551 1 126 39 38
-4.6162 -12.2788 6.4601 1 126 39 38
-4.6328 -12.276 6.4628 1 126 39 38
-4.6488 -12.2715 6.4558 1 126 39 38
-4.6658 -12.2699 6.4647 1 126 39 38
-4.6821 -12.2663 6.4659 1 126 39 38
-4.6981 -12.262 6.4657 1 126 39 38
-4.7155 -12.2612 6.4684 1 126 39 38
-4.7317 -12.2575 6.4685 1 126 39 38
-4.7481 -12.254 6.4714 1 126 39 38
-4.7643 -12.2502 6.472 1 126 39 38
-4.7811 -12.2477 6.4672 1 126 39 38
-4.7985 -12.2469 6.4756 1 126 39 38
-4.8149 -12.2434 6.4764 1 126 39 38
-4.832 -12.2418 6.4793 1 126 39 38
-4.8477 -12.2365 6.4802 1 126 39 38
-4.8649 -12.2349 6.4801 1 126 39 38
-4.8857 -12.2425 6.4899 1 126 39 38
-4.8987 -12.2302 6.4835 1 126 39 38
-4.9197 -12.2381 6.4936 1 126 39 38
-4.939 -12.2415 6.4977 1 126 39 38
-4.9557 -12.2387 6.4984 1 126 39 38
-4.9824 -12.2614 6.5158 1 126 39 38
-4.9948 -12.2477 6.5087 1 126 39 38
-5.0181 -12.2609 6.5212 1 126 39 38
-5.034 -12.2545 6.5202 1 126 39 38
-5.0534 -12.2578 6.5253 1 126 39 38
-5.0761 -12.2693 6.5348 1 126 39 38
-5.0888 -12.2562 6.5297 1 126 39 38
-5.1097 -12.2632 6.5384 1 126 39 38
-5.1191 -12.2422 6.5296 1 126 39 38
-5.1338 -12.2342 6.5339 1 126 39 38
-5.1503 -12.2305 6.5354 1 126 39 38
-5.1668 -12.2267 6.5311 1 126 39 38
-5.184 -12.2245 6.5402 1 126 39 38
-5.2027 -12.2258 6.5371 1 126 39 38
-5.2238 -12.2328 6.5501 1 126 39 38
-5.2387 -12.225 6.5489 1 126 39 38
-5.2524 -12.2146 6.5417 1 126 39 38
-5.2685 -12.2098 6.5494 1 126 39 38
-5.2856 -12.2071 6.5484 1 126 39 38
-5.3022 -12.2033 6.551 1 126 39 38
-5.3201 -12.2026 6.5536 1 126 39 38
-5.3419 -12.2107 6.5605 1 126 39 38
-5.3572 -12.204 6.5631 1 126 39 38
-5.3697 -12.1908 6.5571 1 126 39 38
-5.3869 -12.1882 6.5604 1 126 39 38
-5.403 -12.1842 6.5613 1 126 39 38
-5.4197 -12.1805 6.5614 1 126 39 38
-5.4372 -12.1776 6.5662 1 126 39 38
-5.4591 -12.1854 6.5715 1 126 39 38
-5.4818 -12.195 6.5809 1 126 39 38
-5.4981 -12.1904 6.5811 1 126 39 38
-5.5154 -12.1878 6.5834 1 126 39 38
-5.5323 -12.1843 6.5863 1 126 39 38
-5.5489 -12.1803 6.5874 1 126 39 38
-5.5663 -12.1778 6.5893 1 126 39 38
-5.5832 -12.1744 6.5907 1 126 39 38
-5.5992 -12.1698 6.5919 1 126 39 38
-2.1508 -12.8353 6.3878 1 126 39 38
-2.1676 -12.8368 6.3884 1 126 39 38
-2.1839 -12.835 6.3899 1 126 39 38
-2.1999 -12.8315 6.3834 1 126 39 38
-2.2146 -12.8205 6.3849 1 126 39 38
-2.2303 -12.8154 6.3848 1 126 39 38
-2.2468 -12.8145 6.3842 1 126 39 38
-2.2627 -12.8084 6.3831 1 126 39 38
-2.2785 -12.806 6.3823 1 126 39 38
-2.2946 -12.8033 6.3829 1 126 39 38
-2.3109 -12.7992 6.3823 1 126 39 38
-2.3261 -12.794 6.3801 1 126 39 38
-2.3426 -12.7931 6.3811 1 126 39 38
-2.3584 -12.7887 6.3794 1 126 39 38
-2.3745 -12.7835 6.3804 1 126 39 38
-2.4384 -12.7699 6.3766 1 126 39 38
-2.4865 -12.7604 6.377 1 126 39 38
-2.5512 -12.7529 6.379 1 126 39 38
-2.6149 -12.7378 6.3785 1 126 39 38
-2.6783 -12.7215 6.3754 1 126 39 38
-2.7269 -12.7125 6.3817 1 126 39 38
-2.743 -12.7097 6.3764 1 126 39 38
-2.7594 -12.7083 6.3804 1 126 39 38
-2.7752 -12.704 6.3826 1 126 39 38
-2.7909 -12.7011 6.3813 1 126 39 38
-2.8071 -12.6989 6.3825 1 126 39 38
-2.824 -12.6974 6.382 1 126 39 38
-2.8394 -12.6915 6.3813 1 126 39 38
-2.8556 -12.6891 6.3835 1 126 39 38
-2.872 -12.6875 6.382 1 126 39 38
-2.8874 -12.6833 6.3816 1 126 39 38
-2.9035 -12.6806 6.3831 1 126 39 38
-2.9196 -12.6773 6.3828 1 126 39 38
-2.9356 -12.6742 6.3846 1 126 39 38
-2.9515 -12.6701 6.3818 1 126 39 38
-2.9674 -12.6664 6.388 1 126 39 38
-2.9841 -12.6642 6.3842 1 126 39 38
-2.9999 -12.6602 6.3836 1 126 39 38
-3.0153 -12.6559 6.3828 1 126 39 38
-3.0316 -12.6535 6.383 1 126 39 38
-3.0478 -12.6512 6.3898 1 126 39 38
-3.0639 -12.6464 6.3838 1 126 39 38
-3.0798 -12.6442 6.3825 1 126 39 38
-3.0961 -12.6403 6.3841 1 126 39 38
-3.1125 -12.6386 6.3847 1 126 39 38
-3.1287 -12.6358 6.3904 1 126 39 38
-3.1436 -12.6297 6.3847 1 126 39 38
-3.1603 -12.6273 6.3835 1 126 39 38
-3.1759 -12.6222 6.384 1 126 39 38
-3.1924 -12.6209 6.3848 1 126 39 38
-3.2086 -12.6182 6.3915 1 126 39 38
-3.2243 -12.6137 6.3852 1 126 39 38
-3.2407 -12.6117 6.3913 1 126 39 38
-3.2561 -12.6075 6.3867 1 126 39 38
-3.2719 -12.6031 6.39 1 126 39 38
-3.2882 -12.599 6.3917 1 126 39 38
-3.2976 -12.5707 6.3769 1 126 39 38
-3.3144 -12.5703 6.3798 1 126 39 38
-3.3317 -12.5717 6.3826 1 126 39 38
-3.3531 -12.5884 6.3927 1 126 39 38
-3.3621 -12.5588 6.3798 1 126 39 38
-3.3772 -12.5535 6.3782 1 126 39 38
-3.4008 -12.5782 6.3939 1 126 39 38
-3.4155 -12.57 6.3914 1 126 39 38
-3.4258 -12.5455 6.3796 1 126 39 38
-3.4421 -12.5433 6.3817 1 126 39 38
-3.4657 -12.5658 6.3944 1 126 39 38
-3.4741 -12.5362 6.383 1 126 39 38
-3.4901 -12.5311 6.3827 1 126 39 38
-3.5057 -12.5278 6.3817 1 126 39 38
-3.5294 -12.5518 6.3983 1 126 39 38
-3.5381 -12.5222 6.3829 1 126 39 38
-3.5542 -12.5174 6.3843 1 126 39 38
-3.5777 -12.5403 6.3972 1 126 39 38
-3.5936 -12.5362 6.3964 1 126 39 38
-3.6028 -12.5091 6.3869 1 126 39 38
-3.6193 -12.5072 6.3913 1 126 39 38
-3.641 -12.5246 6.3989 1 126 39 38
-3.6592 -12.5285 6.4017 1 126 39 38
-3.6751 -12.523 6.4069 1 126 39 38
-3.6914 -12.5203 6.4079 1 126 39 38
-3.7072 -12.5172 6.4031 1 126 39 38
-3.7234 -12.5127 6.4088 1 126 39 38
-3.7399 -12.5107 6.4092 1 126 39 38
-3.7558 -12.5066 6.4095 1 126 39 38
-3.7714 -12.5015 6.4103 1 126 39 38
-3.7874 -12.4992 6.41 1 126 39 38
-3.8042 -12.4964 6.4126 1 126 39 38
-3.8198 -12.4915 6.4044 1 126 39 38
-3.836 -12.4881 6.4117 1 126 39 38
-3.8529 -12.4874 6.4082 1 126 39 38
-3.8682 -12.4827 6.4123 1 126 39 38
-3.8847 -12.4788 6.4149 1 126 39 38
-3.901 -12.4762 6.4135 1 126 39 38
-3.9173 -12.4731 6.4155 1 126 39 38
-3.9332 -12.469 6.4149 1 126 39 38
-3.9491 -12.4648 6.4153 1 126 39 38
-3.9655 -12.462 6.4185 1 126 39 38
-3.9817 -12.4588 6.4168 1 126 39 38
-3.9981 -12.4559 6.4185 1 126 39 38
-4.014 -12.4516 6.4178 1 126 39 38
-4.0302 -12.4485 6.4188 1 126 39 38
-4.0464 -12.4452 6.4222 1 126 39 38
-4.0621 -12.44 6.4187 1 126 39 38
-4.0782 -12.4365 6.42 1 126 39 38
-4.0946 -12.4337 6.4217 1 126 39 38
-4.1116 -12.4327 6.4233 1 126 39 38
-4.1256 -12.4226 6.4228 1 126 39 38
-4.1424 -12.4209 6.4221 1 126 39 38
-4.1563 -12.4106 6.4251 1 126 39 38
-4.1739 -12.4114 6.4231 1 126 39 38
-4.1879 -12.4013 6.4242 1 126 39 38
-4.1976 -12.3789 6.4122 1 126 39 38
-4.2139 -12.3757 6.4169 1 126 39 38
-4.2307 -12.3739 6.4192 1 126 39 38
-4.246 -12.3679 6.4132 1 126 39 38
-4.2623 -12.3647 6.4189 1 126 39 38
-4.2782 -12.3605 6.4191 1 126 39 38
-4.2944 -12.3571 6.4206 1 126 39 38
-4.3102 -12.3536 6.422 1 126 39 38
-4.3266 -12.3496 6.4223 1 126 39 38
-4.3422 -12.3441 6.4213 1 126 39 38
-4.359 -12.3425 6.4238 1 126 39 38
-4.3748 -12.3379 6.4243 1 126 39 38
-4.391 -12.3342 6.4247 1 126 39 38
-4.4064 -12.3285 6.4256 1 126 39 38
-4.4237 -12.328 6.4252 1 126 39 38
-4.4389 -12.3215 6.4262 1 126 39 38
-4.4549 -12.3185 6.4265 1 126 39 38
-4.4705 -12.3122 6.4272 1 126 39 38
-4.4867 -12.3086 6.4272 1 126 39 38
-4.5034 -12.3062 6.429 1 126 39 38
-4.5183 -12.2992 6.4288 1 126 39 38
-4.5355 -12.298 6.4301 1 126 39 38
-4.5516 -12.2942 6.4316 1 126 39 38
-4.5677 -12.2902 6.432 1 126 39 38
-4.5834 -12.2851 6.4323 1 126 39 38
-4.5993 -12.2806 6.434 1 126 39 38
-4.6162 -12.2786 6.4396 1 126 39 38
-4.6335 -12.2777 6.4427 1 126 39 38
-4.6493 -12.273 6.4361 1 126 39 38
-4.6655 -12.2693 6.4439 1 126 39 38
-4.6822 -12.2667 6.4456 1 126 39 38
-4.6982 -12.2624 6.4454 1 126 39 38
-4.7147 -12.2592 6.4469 1 126 39 38
-4.7316 -12.2571 6.4478 1 126 39 38
-4.7482 -12.2543 6.4511 1 126 39 38
-4.7645 -12.2506 6.4512 1 126 39 38
-4.7807 -12.2467 6.4457 1 126 39 38
-4.7973 -12.2438 6.4535 1 126 39 38
-4.8136 -12.2402 6.4542 1 126 39 38
-4.8297 -12.2358 6.4556 1 126 39 38
-4.8469 -12.2343 6.4581 1 126 39 38
-4.8624 -12.2286 6.4562 1 126 39 38
-4.8791 -12.2258 6.461 1 126 39 38
-4.8962 -12.2241 6.4598 1 126 39 38
-4.9126 -12.2205 6.4632 1 126 39 38
-4.9289 -12.2165 6.4644 1 126 39 38
-4.9448 -12.2117 6.4635 1 126 39 38
-4.9616 -12.2103 6.4681 1 126 39 38
-4.9785 -12.2079 6.467 1 126 39 38
-4.9945 -12.2032 6.4699 1 126 39 38
-5.0117 -12.2004 6.4713 1 126 39 38
-5.0276 -12.1954 6.4715 1 126 39 38
-5.0465 -12.1976 6.4761 1 126 39 38
-5.0616 -12.1909 6.4748 1 126 39 38
-5.0782 -12.1875 6.4774 1 126 39 38
-5.0953 -12.1854 6.4787 1 126 39 38
-5.1178 -12.1962 6.493 1 126 39 38
-5.1359 -12.1963 6.4965 1 126 39 38
-5.149 -12.1845 6.488 1 126 39 38
-5.1812 -12.2178 6.5159 1 126 39 38
-5.1847 -12.1835 6.4939 1 126 39 38
-5.2193 -12.2222 6.5237 1 126 39 38
-5.2369 -12.2209 6.526 1 126 39 38
-5.247 -12.2021 6.5143 1 126 39 38
-5.2684 -12.2095 6.528 1 126 39 38
-5.2847 -12.2051 6.5266 1 126 39 38
-5.3011 -12.2007 6.5288 1 126 39 38
-5.3191 -12.2004 6.5322 1 126 39 38
-5.3409 -12.2083 6.539 1 126 39 38
-5.3565 -12.2022 6.5414 1 126 39 38
-5.3704 -12.1922 6.5371 1 126 39 38
-5.3861 -12.1863 6.5385 1 126 39 38
-5.4026 -12.1832 6.5399 1 126 39 38
-5.4193 -12.1797 6.5401 1 126 39 38
-5.4372 -12.1776 6.5454 1 126 39 38
-5.4586 -12.1844 6.5506 1 126 39 38
-5.4812 -12.1938 6.5594 1 126 39 38
-5.498 -12.1902 6.5601 1 126 39 38
-5.5158 -12.1887 6.563 1 126 39 38
-5.5324 -12.1845 6.5656 1 126 39 38
-5.5493 -12.1811 6.5669 1 126 39 38
-5.5657 -12.1764 6.5677 1 126 39 38
-5.5823 -12.1724 6.5687 1 126 39 38
-5.5989 -12.1691 6.5707 1 126 39 38
-2.1516 -12.8401 6.3699 1 126 39 38
-2.1679 -12.8381 6.3688 1 126 39 38
-2.1843 -12.8373 6.3707 1 126 39 38
-2.1984 -12.8224 6.3586 1 126 39 38
-2.2143 -12.8185 6.3642 1 126 39 38
-2.2305 -12.8166 6.3651 1 126 39 38
-2.2467 -12.8142 6.3638 1 126 39 38
-2.263 -12.8099 6.3636 1 126 39 38
-2.2782 -12.8047 6.3614 1 126 39 38
-2.2946 -12.8032 6.3626 1 126 39 38
-2.3108 -12.7987 6.3613 1 126 39 38
-2.3265 -12.7961 6.3604 1 126 39 38
-2.3426 -12.793 6.3603 1 126 39 38
-2.3584 -12.7886 6.3591 1 126 39 38
-2.3742 -12.7821 6.3589 1 126 39 38
-2.5488 -12.7409 6.3528 1 126 39 38
-2.6139 -12.7329 6.3563 1 126 39 38
-2.7236 -12.6973 6.3538 1 126 39 38
-2.7433 -12.7112 6.3564 1 126 39 38
-2.7594 -12.7082 6.3607 1 126 39 38
-2.7756 -12.7059 6.3633 1 126 39 38
-2.7912 -12.7026 6.3618 1 126 39 38
-2.807 -12.6985 6.362 1 126 39 38
-2.8234 -12.6951 6.3611 1 126 39 38
-2.8397 -12.6927 6.3612 1 126 39 38
-2.8559 -12.6902 6.3638 1 126 39 38
-2.8715 -12.6853 6.3611 1 126 39 38
-2.8875 -12.6838 6.3616 1 126 39 38
-2.9037 -12.6814 6.3632 1 126 39 38
-2.9196 -12.6774 6.3626 1 126 39 38
-2.9357 -12.6747 6.3646 1 126 39 38
-2.9516 -12.6705 6.3613 1 126 39 38
-2.9677 -12.6677 6.3684 1 126 39 38
-2.984 -12.6639 6.3633 1 126 39 38
-2.9999 -12.6601 6.3633 1 126 39 38
-3.0154 -12.6564 6.3633 1 126 39 38
-3.0312 -12.6522 6.3621 1 126 39 38
-3.0474 -12.6495 6.3682 1 126 39 38
-3.064 -12.6466 6.3637 1 126 39 38
-3.0797 -12.6439 6.3627 1 126 39 38
-3.0962 -12.6409 6.3642 1 126 39 38
-3.1119 -12.6362 6.3627 1 126 39 38
-3.1283 -12.6344 6.3694 1 126 39 38
-3.144 -12.6313 6.3647 1 126 39 38
-3.1604 -12.6278 6.3635 1 126 39 38
-3.1762 -12.6234 6.3643 1 126 39 38
-3.1928 -12.6224 6.3648 1 126 39 38
-3.2085 -12.618 6.3711 1 126 39 38
-3.2246 -12.6146 6.3654 1 126 39 38
-3.2408 -12.6122 6.3713 1 126 39 38
-3.2562 -12.6079 6.3666 1 126 39 38
-3.2718 -12.6029 6.3697 1 126 39 38
-3.288 -12.5985 6.3711 1 126 39 38
-3.2973 -12.5692 6.3559 1 126 39 38
-3.3132 -12.5657 6.3572 1 126 39 38
-3.3289 -12.5613 6.3566 1 126 39 38
-3.3537 -12.5909 6.3737 1 126 39 38
-3.3607 -12.5536 6.357 1 126 39 38
-3.3763 -12.5505 6.3564 1 126 39 38
-3.3957 -12.5595 6.3642 1 126 39 38
-3.4092 -12.5466 6.3593 1 126 39 38
-3.4249 -12.5421 6.3577 1 126 39 38
-3.4407 -12.538 6.3588 1 126 39 38
-3.4674 -12.572 6.3773 1 126 39 38
-3.4726 -12.5306 6.36 1 126 39 38
-3.4897 -12.5296 6.3617 1 126 39 38
-3.505 -12.5253 6.3597 1 126 39 38
-3.5305 -12.5558 6.3794 1 126 39 38
-3.537 -12.5184 6.3607 1 126 39 38
-3.5531 -12.5137 6.3621 1 126 39 38
-3.5716 -12.519 6.3661 1 126 39 38
-3.5944 -12.5389 6.378 1 126 39 38
-3.6019 -12.5058 6.365 1 126 39 38
-3.6187 -12.5051 6.3705 1 126 39 38
-3.6421 -12.5286 6.3807 1 126 39 38
-3.6588 -12.5271 6.3807 1 126 39 38
-3.6753 -12.5236 6.3869 1 126 39 38
-3.6915 -12.5206 6.3873 1 126 39 38
-3.707 -12.5165 6.3824 1 126 39 38
-3.7237 -12.5138 6.3885 1 126 39 38
-3.7399 -12.5107 6.3888 1 126 39 38
-3.756 -12.5071 6.3894 1 126 39 38
-3.7721 -12.5038 6.3907 1 126 39 38
-3.7878 -12.5005 6.3898 1 126 39 38
-3.8042 -12.4965 6.3923 1 126 39 38
-3.8207 -12.4942 6.3854 1 126 39 38
-3.8363 -12.4892 6.3924 1 126 39 38
-3.8527 -12.4867 6.3875 1 126 39 38
-3.8683 -12.4828 6.392 1 126 39 38
-3.8849 -12.4796 6.395 1 126 39 38
-3.9016 -12.4779 6.3941 1 126 39 38
-3.9174 -12.4735 6.3953 1 126 39 38
-3.9332 -12.4702 6.3951 1 126 39 38
-3.9497 -12.4666 6.3958 1 126 39 38
-3.9659 -12.4631 6.3987 1 126 39 38
-3.9823 -12.4606 6.3969 1 126 39 38
-3.9982 -12.4562 6.3987 1 126 39 38
-4.0147 -12.454 6.3992 1 126 39 38
-4.0309 -12.4505 6.4 1 126 39 38
-4.0473 -12.4479 6.4028 1 126 39 38
-4.0633 -12.4437 6.4007 1 126 39 38
-4.08 -12.4418 6.4028 1 126 39 38
-4.096 -12.438 6.404 1 126 39 38
-4.1118 -12.4345 6.4038 1 126 39 38
-4.1288 -12.4322 6.4069 1 126 39 38
-4.1448 -12.4282 6.405 1 126 39 38
-4.1607 -12.4238 6.411 1 126 39 38
-4.1772 -12.4211 6.4082 1 126 39 38
-4.1931 -12.4168 6.4123 1 126 39 38
-4.2018 -12.3913 6.3988 1 126 39 38
-4.2157 -12.3811 6.3993 1 126 39 38
-4.2313 -12.3758 6.3993 1 126 39 38
-4.2498 -12.379 6.3991 1 126 39 38
-4.2641 -12.3699 6.4013 1 126 39 38
-4.2801 -12.3659 6.4015 1 126 39 38
-4.2957 -12.3608 6.4016 1 126 39 38
-4.3107 -12.3552 6.4024 1 126 39 38
-4.3269 -12.3504 6.4023 1 126 39 38
-4.3446 -12.351 6.4045 1 126 39 38
-4.3596 -12.3443 6.4043 1 126 39 38
-4.3758 -12.3406 6.4053 1 126 39 38
-4.392 -12.3371 6.4063 1 126 39 38
-4.4078 -12.3323 6.4072 1 126 39 38
-4.425 -12.3314 6.4071 1 126 39 38
-4.4407 -12.3266 6.408 1 126 39 38
-4.4569 -12.3241 6.409 1 126 39 38
-4.4738 -12.3211 6.4115 1 126 39 38
-4.4895 -12.3163 6.4114 1 126 39 38
-4.5062 -12.3138 6.4125 1 126 39 38
-4.5224 -12.3101 6.4146 1 126 39 38
-4.5386 -12.3065 6.4136 1 126 39 38
-4.5617 -12.3215 6.4254 1 126 39 38
-4.5779 -12.3177 6.4259 1 126 39 38
-4.5923 -12.309 6.4249 1 126 39 38
-4.6078 -12.3032 6.4249 1 126 39 38
-4.621 -12.2914 6.4254 1 126 39 38
-4.6362 -12.2851 6.4266 1 126 39 38
-4.6561 -12.2909 6.4251 1 126 39 38
-4.6676 -12.2747 6.4263 1 126 39 38
-4.6842 -12.2719 6.4279 1 126 39 38
-4.7004 -12.268 6.4279 1 126 39 38
-4.7165 -12.2638 6.4288 1 126 39 38
-4.7326 -12.2598 6.4288 1 126 39 38
-4.7483 -12.2545 6.4307 1 126 39 38
-4.7648 -12.2515 6.4318 1 126 39 38
-4.7828 -12.2521 6.4285 1 126 39 38
-4.7974 -12.244 6.4331 1 126 39 38
-4.8137 -12.2403 6.4338 1 126 39 38
-4.8297 -12.236 6.4357 1 126 39 38
-4.8461 -12.2324 6.4371 1 126 39 38
-4.863 -12.23 6.4364 1 126 39 38
-4.8792 -12.2262 6.4407 1 126 39 38
-4.8951 -12.2214 6.4384 1 126 39 38
-4.9125 -12.2202 6.443 1 126 39 38
-4.929 -12.2169 6.444 1 126 39 38
-4.9449 -12.2121 6.4433 1 126 39 38
-4.9615 -12.2099 6.4474 1 126 39 38
-4.9778 -12.2061 6.4456 1 126 39 38
-4.995 -12.2043 6.4505 1 126 39 38
-5.0114 -12.1995 6.4498 1 126 39 38
-5.0282 -12.1968 6.4522 1 126 39 38
-5.0453 -12.1948 6.454 1 126 39 38
-5.0618 -12.1913 6.454 1 126 39 38
-5.0785 -12.1882 6.4573 1 126 39 38
-5.0941 -12.1824 6.4566 1 126 39 38
-5.1107 -12.1792 6.4634 1 126 39 38
-5.1283 -12.1783 6.4663 1 126 39 38
-5.1447 -12.1744 6.462 1 126 39 38
-5.162 -12.1726 6.4712 1 126 39 38
-5.1782 -12.1682 6.4651 1 126 39 38
-5.1943 -12.1636 6.4718 1 126 39 38
-5.212 -12.1628 6.4743 1 126 39 38
-5.2289 -12.1599 6.4711 1 126 39 38
-5.2461 -12.1577 6.4802 1 126 39 38
-5.2626 -12.1541 6.4787 1 126 39 38
-5.281 -12.1546 6.4835 1 126 39 38
-5.3067 -12.1718 6.4957 1 126 39 38
-5.3186 -12.1573 6.491 1 126 39 38
-5.3445 -12.175 6.5061 1 126 39 38
-5.3561 -12.1599 6.499 1 126 39 38
-5.3787 -12.1697 6.5089 1 126 39 38
-5.397 -12.1706 6.5124 1 126 39 38
-5.416 -12.1722 6.5148 1 126 39 38
-5.437 -12.1772 6.5244 1 126 39 38
-5.4576 -12.1821 6.5281 1 126 39 38
-5.481 -12.1932 6.5382 1 126 39 38
-5.4975 -12.189 6.5381 1 126 39 38
-5.5146 -12.1861 6.5413 1 126 39 38
-5.5314 -12.1824 6.5436 1 126 39 38
-5.5496 -12.1818 6.5465 1 126 39 38
-5.5653 -12.1757 6.5465 1 126 39 38
-5.5819 -12.1715 6.5474 1 126 39 38
-5.5985 -12.1684 6.5494 1 126 39 38
-2.1504 -12.8327 6.346 1 126 39 38
-2.1677 -12.8371 6.348 1 126 39 38
-2.1841 -12.8359 6.3498 1 126 39 38
-2.1985 -12.8232 6.3388 1 126 39 38
-2.2146 -12.8205 6.3444 1 126 39 38
-2.2304 -12.8156 6.3444 1 126 39 38
-2.2463 -12.8116 6.3423 1 126 39 38
-2.2628 -12.8091 6.343 1 126 39 38
-2.2786 -12.8067 6.3421 1 126 39 38
-2.2944 -12.8022 6.3418 1 126 39 38
-2.311 -12.7999 6.3422 1 126 39 38
-2.3267 -12.7969 6.3411 1 126 39 38
-2.3426 -12.7932 6.3407 1 126 39 38
-2.3586 -12.7899 6.3395 1 126 39 38
-2.3743 -12.7823 6.3393 1 126 39 38
-2.4378 -12.7665 6.3349 1 126 39 38
-2.5174 -12.7482 6.3326 1 126 39 38
-2.5329 -12.7446 6.3338 1 126 39 38
-2.55 -12.7467 6.3354 1 126 39 38
-2.5649 -12.7379 6.3327 1 126 39 38
-2.5969 -12.7312 6.3326 1 126 39 38
-2.6134 -12.7304 6.3343 1 126 39 38
-2.6291 -12.7257 6.3321 1 126 39 38
-2.6597 -12.7126 6.3344 1 126 39 38
-2.6776 -12.7185 6.3335 1 126 39 38
-2.7088 -12.7062 6.3343 1 126 39 38
-2.7246 -12.7017 6.3358 1 126 39 38
-2.7432 -12.7106 6.3364 1 126 39 38
-2.7593 -12.708 6.3398 1 126 39 38
-2.7754 -12.7051 6.3427 1 126 39 38
-2.7912 -12.7025 6.3416 1 126 39 38
-2.8073 -12.6996 6.3424 1 126 39 38
-2.8237 -12.6961 6.3409 1 126 39 38
-2.8399 -12.6938 6.342 1 126 39 38
-2.8556 -12.6891 6.343 1 126 39 38
-2.8718 -12.6867 6.341 1 126 39 38
-2.8874 -12.6831 6.341 1 126 39 38
-2.9034 -12.6798 6.3422 1 126 39 38
-2.9194 -12.6767 6.342 1 126 39 38
-2.9357 -12.6743 6.3441 1 126 39 38
-2.9513 -12.6696 6.3411 1 126 39 38
-2.9676 -12.6674 6.3474 1 126 39 38
-2.984 -12.6639 6.3436 1 126 39 38
-3.0003 -12.6616 6.3438 1 126 39 38
-3.0153 -12.6559 6.3428 1 126 39 38
-3.0316 -12.6537 6.3426 1 126 39 38
-3.0477 -12.6508 6.3486 1 126 39 38
-3.0643 -12.6479 6.3441 1 126 39 38
-3.0798 -12.6444 6.3427 1 126 39 38
-3.096 -12.64 6.3435 1 126 39 38
-3.1121 -12.6368 6.3433 1 126 39 38
-3.1283 -12.6342 6.3496 1 126 39 38
-3.1436 -12.6297 6.3442 1 126 39 38
-3.16 -12.6263 6.3425 1 126 39 38
-3.1764 -12.6244 6.3445 1 126 39 38
-3.1921 -12.6198 6.3437 1 126 39 38
-3.2083 -12.6172 6.3505 1 126 39 38
-3.2244 -12.6138 6.3447 1 126 39 38
-3.2409 -12.6122 6.3511 1 126 39 38
-3.2564 -12.6084 6.3466 1 126 39 38
-3.2716 -12.6022 6.3491 1 126 39 38
-3.2884 -12.6 6.3516 1 126 39 38
-3.2974 -12.5697 6.3359 1 126 39 38
-3.3134 -12.5665 6.3374 1 126 39 38
-3.329 -12.5613 6.3364 1 126 39 38
-3.3495 -12.5751 6.3455 1 126 39 38
-3.3604 -12.5524 6.3366 1 126 39 38
-3.3771 -12.5534 6.3377 1 126 39 38
-3.3931 -12.5498 6.339 1 126 39 38
-3.4087 -12.545 6.3383 1 126 39 38
-3.4249 -12.5423 6.3376 1 126 39 38
-3.4411 -12.5394 6.3393 1 126 39 38
-3.4672 -12.5712 6.3566 1 126 39 38
-3.4728 -12.5316 6.3402 1 126 39 38
-3.4888 -12.5265 6.3399 1 126 39 38
-3.5045 -12.5235 6.3391 1 126 39 38
-3.5299 -12.5535 6.3585 1 126 39 38
-3.5364 -12.5163 6.3394 1 126 39 38
-3.5531 -12.5137 6.3419 1 126 39 38
-3.5698 -12.5126 6.3426 1 126 39 38
-3.588 -12.5166 6.3459 1 126 39 38
-3.6018 -12.5055 6.3446 1 126 39 38
-3.6179 -12.5022 6.3483 1 126 39 38
-3.6396 -12.5199 6.3559 1 126 39 38
-3.6586 -12.5264 6.3601 1 126 39 38
-3.6754 -12.524 6.3668 1 126 39 38
-3.6914 -12.5204 6.3673 1 126 39 38
-3.707 -12.5165 6.3621 1 126 39 38
-3.7237 -12.5137 6.3687 1 126 39 38
-3.7403 -12.512 6.3692 1 126 39 38
-3.7561 -12.5077 6.3694 1 126 39 38
-3.7716 -12.5021 6.37 1 126 39 38
-3.7876 -12.4997 6.3696 1 126 39 38
-3.8044 -12.4971 6.3723 1 126 39 38
-3.8202 -12.4927 6.3643 1 126 39 38
-3.8368 -12.4907 6.3724 1 126 39 38
-3.853 -12.4876 6.3677 1 126 39 38
-3.8688 -12.4844 6.3725 1 126 39 38
-3.8854 -12.481 6.3754 1 126 39 38
-3.9014 -12.4774 6.3735 1 126 39 38
-3.9176 -12.4739 6.3752 1 126 39 38
-3.9332 -12.4703 6.3748 1 126 39 38
-3.9496 -12.4662 6.3753 1 126 39 38
-3.9662 -12.4641 6.3788 1 126 39 38
-3.9823 -12.4604 6.3769 1 126 39 38
-3.9985 -12.4571 6.3783 1 126 39 38
-4.0148 -12.4541 6.3789 1 126 39 38
-4.0313 -12.4516 6.3797 1 126 39 38
-4.0469 -12.4465 6.3822 1 126 39 38
-4.0642 -12.4465 6.3813 1 126 39 38
-4.0805 -12.4433 6.3827 1 126 39 38
