-3.854 -12.3802 5.8078 1 218 44 226
-3.8688 -12.3742 5.8052 1 218 44 226
-3.883 -12.3635 5.8035 1 218 44 226
-3.901 -12.368 5.8069 1 218 44 226
-3.9184 -12.3677 5.8086 1 218 44 226
-3.9359 -12.3688 5.8139 1 218 44 226
-3.9553 -12.3758 5.8166 1 218 44 226
-3.9744 -12.382 5.8228 1 218 44 226
-3.991 -12.3814 5.8244 1 218 44 226
-4.0081 -12.3798 5.8255 1 218 44 226
-2.1845 -12.8378 5.8133 1 218 44 226
-2.2005 -12.8342 5.807 1 218 44 226
-3.6969 -12.4822 5.8075 1 218 44 226
-3.7131 -12.478 5.8132 1 218 44 226
-3.7907 -12.4519 5.812 1 218 44 226
-3.8044 -12.4406 5.8011 1 218 44 226
-3.8146 -12.4185 5.7998 1 218 44 226
-3.8295 -12.4113 5.7934 1 218 44 226
-3.8412 -12.3951 5.7914 1 218 44 226
-3.8548 -12.3826 5.7898 1 218 44 226
-3.8691 -12.3753 5.7862 1 218 44 226
-3.884 -12.3667 5.7855 1 218 44 226
-3.9013 -12.3689 5.7873 1 218 44 226
-3.9196 -12.3713 5.7912 1 218 44 226
-3.9381 -12.3758 5.7976 1 218 44 226
-3.9589 -12.387 5.8022 1 218 44 226
-3.9761 -12.3871 5.8056 1 218 44 226
-3.996 -12.3971 5.8116 1 218 44 226
-2.1845 -12.8382 5.7934 1 218 44 226
-2.2004 -12.8342 5.7879 1 218 44 226
-2.2325 -12.8276 5.7933 1 218 44 226
-2.2485 -12.824 5.7915 1 218 44 226
-3.6975 -12.4842 5.7888 1 218 44 226
-3.7125 -12.476 5.7921 1 218 44 226
-3.8082 -12.4533 5.7874 1 218 44 226
-3.8173 -12.4272 5.7838 1 218 44 226
-3.8313 -12.417 5.776 1 218 44 226
-3.8436 -12.4028 5.7755 1 218 44 226
-3.8553 -12.3843 5.7706 1 218 44 226
-3.8695 -12.3763 5.7671 1 218 44 226
-3.8837 -12.3659 5.7656 1 218 44 226
-3.9017 -12.3702 5.7689 1 218 44 226
-3.9198 -12.372 5.7721 1 218 44 226
-3.9406 -12.3834 5.7816 1 218 44 226
-3.96 -12.3907 5.7844 1 218 44 226
-3.9794 -12.3976 5.7909 1 218 44 226
-2.1846 -12.8384 5.7743 1 218 44 226
-2.2004 -12.834 5.7677 1 218 44 226
-2.2166 -12.8316 5.7733 1 218 44 226
-3.6987 -12.4885 5.7712 1 218 44 226
-3.7138 -12.4801 5.775 1 218 44 226
-3.8097 -12.4582 5.7701 1 218 44 226
-3.8202 -12.4364 5.7691 1 218 44 226
-3.8328 -12.4219 5.7587 1 218 44 226
-3.845 -12.4073 5.758 1 218 44 226
-3.8562 -12.3871 5.7529 1 218 44 226
-3.8703 -12.3789 5.7489 1 218 44 226
-3.8844 -12.368 5.7471 1 218 44 226
-3.9025 -12.3727 5.7505 1 218 44 226
-3.9208 -12.3751 5.7535 1 218 44 226
-3.9434 -12.3922 5.7662 1 218 44 226
-3.9622 -12.3974 5.7685 1 218 44 226
-3.9856 -12.4167 5.7803 1 218 44 226
-2.1845 -12.838 5.7546 1 218 44 226
-2.2007 -12.8355 5.7494 1 218 44 226
-2.2164 -12.8305 5.7532 1 218 44 226
-2.2324 -12.8268 5.7538 1 218 44 226
-2.2487 -12.8251 5.7528 1 218 44 226
-2.265 -12.821 5.7528 1 218 44 226
-3.7144 -12.4824 5.7559 1 218 44 226
-3.8105 -12.4607 5.7517 1 218 44 226
-3.8232 -12.4463 5.7541 1 218 44 226
-3.8338 -12.4252 5.7407 1 218 44 226
-3.8457 -12.4096 5.7396 1 218 44 226
-3.8569 -12.3893 5.7339 1 218 44 226
-3.8703 -12.379 5.7294 1 218 44 226
-3.8856 -12.372 5.7295 1 218 44 226
-3.9031 -12.3745 5.7318 1 218 44 226
-3.9207 -12.3749 5.7344 1 218 44 226
-3.944 -12.3941 5.7475 1 218 44 226
-3.9654 -12.4074 5.753 1 218 44 226
-3.9855 -12.4165 5.7606 1 218 44 226
-2.1848 -12.8398 5.7359 1 218 44 226
-2.2006 -12.8352 5.7292 1 218 44 226
-2.2163 -12.8297 5.7333 1 218 44 226
-2.2326 -12.8282 5.7349 1 218 44 226
-2.2967 -12.8145 5.7324 1 218 44 226
-3.7137 -12.48 5.7358 1 218 44 226
-3.8243 -12.45 5.7363 1 218 44 226
-3.8366 -12.4343 5.7259 1 218 44 226
-3.8468 -12.4132 5.7217 1 218 44 226
-3.8578 -12.3922 5.7163 1 218 44 226
-3.8714 -12.3826 5.7116 1 218 44 226
-3.887 -12.3762 5.712 1 218 44 226
-3.9041 -12.3777 5.7139 1 218 44 226
-3.9227 -12.381 5.7177 1 218 44 226
-3.9449 -12.3971 5.7294 1 218 44 226
-3.9671 -12.4127 5.7364 1 218 44 226
-3.9858 -12.4176 5.7415 1 218 44 226
-2.185 -12.8409 5.7168 1 218 44 226
-2.2008 -12.8361 5.7106 1 218 44 226
-2.2165 -12.8312 5.7145 1 218 44 226
-2.2327 -12.8286 5.7155 1 218 44 226
-2.2486 -12.8243 5.7134 1 218 44 226
-2.2649 -12.8201 5.7134 1 218 44 226
-2.2806 -12.8172 5.7123 1 218 44 226
-2.2967 -12.8148 5.713 1 218 44 226
-2.3284 -12.806 5.7107 1 218 44 226
-2.3606 -12.8005 5.7099 1 218 44 226
-3.7138 -12.4801 5.7158 1 218 44 226
-3.7297 -12.4762 5.7157 1 218 44 226
-3.8248 -12.4516 5.7175 1 218 44 226
-3.838 -12.4387 5.7079 1 218 44 226
-3.847 -12.4139 5.7026 1 218 44 226
-3.8586 -12.3947 5.6975 1 218 44 226
-3.8719 -12.3839 5.6928 1 218 44 226
-3.888 -12.3794 5.694 1 218 44 226
-3.9046 -12.3793 5.6951 1 218 44 226
-3.9228 -12.3815 5.6985 1 218 44 226
-3.9454 -12.3985 5.7105 1 218 44 226
-3.9666 -12.4112 5.7157 1 218 44 226
-3.987 -12.4213 5.7237 1 218 44 226
-2.169 -12.8445 5.6968 1 218 44 226
-2.1846 -12.8384 5.6962 1 218 44 226
-2.2006 -12.8352 5.6902 1 218 44 226
-2.2165 -12.8309 5.6949 1 218 44 226
-2.2325 -12.8273 5.695 1 218 44 226
-2.2486 -12.8248 5.6941 1 218 44 226
-2.2652 -12.822 5.6947 1 218 44 226
-2.2804 -12.8166 5.6926 1 218 44 226
-2.2967 -12.8147 5.6935 1 218 44 226
-2.3127 -12.811 5.6931 1 218 44 226
-2.3287 -12.8075 5.6919 1 218 44 226
-2.3767 -12.7973 5.6918 1 218 44 226
-3.6988 -12.4888 5.6933 1 218 44 226
-3.7127 -12.4767 5.6953 1 218 44 226
-3.7288 -12.4733 5.6949 1 218 44 226
-3.8274 -12.4598 5.7012 1 218 44 226
-3.8377 -12.4379 5.6885 1 218 44 226
-3.8474 -12.4151 5.6837 1 218 44 226
-3.8596 -12.3981 5.6801 1 218 44 226
-3.8728 -12.3871 5.6748 1 218 44 226
-3.8887 -12.3818 5.6757 1 218 44 226
-3.9054 -12.3818 5.6769 1 218 44 226
-3.9238 -12.3844 5.6799 1 218 44 226
-3.9456 -12.3992 5.6914 1 218 44 226
-3.9675 -12.4141 5.6981 1 218 44 226
-4.0826 -12.3983 5.7065 1 218 44 226
-2.1687 -12.8428 5.6765 1 218 44 226
-2.1848 -12.8395 5.6772 1 218 44 226
-2.2008 -12.8364 5.6717 1 218 44 226
-2.2167 -12.8321 5.6764 1 218 44 226
-2.2327 -12.8285 5.6765 1 218 44 226
-2.2483 -12.8227 5.6738 1 218 44 226
-2.2649 -12.8206 5.6746 1 218 44 226
-2.2806 -12.8173 5.6734 1 218 44 226
-2.2967 -12.8145 5.6739 1 218 44 226
-2.3126 -12.8105 5.6729 1 218 44 226
-2.3284 -12.8061 5.6718 1 218 44 226
-2.3447 -12.804 5.6717 1 218 44 226
-2.3608 -12.8014 5.6714 1 218 44 226
-3.6976 -12.4845 5.6718 1 218 44 226
-3.712 -12.4742 5.6741 1 218 44 226
-3.7281 -12.4709 5.6743 1 218 44 226
-3.8383 -12.4396 5.6694 1 218 44 226
-3.8483 -12.418 5.6656 1 218 44 226
-3.8604 -12.4005 5.6618 1 218 44 226
-3.8738 -12.3901 5.6568 1 218 44 226
-3.891 -12.3892 5.6596 1 218 44 226
-3.907 -12.387 5.6598 1 218 44 226
-3.9259 -12.3912 5.6641 1 218 44 226
-3.9465 -12.402 5.6732 1 218 44 226
-3.9695 -12.4202 5.6809 1 218 44 226
-4.0829 -12.3991 5.6879 1 218 44 226
-4.0994 -12.3968 5.6882 1 218 44 226
-2.1686 -12.8423 5.6569 1 218 44 226
-2.1848 -12.8396 5.6578 1 218 44 226
-2.2008 -12.836 5.6516 1 218 44 226
-2.2166 -12.8317 5.6563 1 218 44 226
-2.2325 -12.8273 5.6566 1 218 44 226
-2.2488 -12.8254 5.6555 1 218 44 226
-2.265 -12.8207 5.6557 1 218 44 226
-2.2807 -12.818 5.6543 1 218 44 226
-2.2967 -12.8144 5.6544 1 218 44 226
-2.3128 -12.8117 5.6545 1 218 44 226
-2.329 -12.8092 5.6537 1 218 44 226
-2.3447 -12.8041 5.6528 1 218 44 226
-2.3608 -12.8015 5.652 1 218 44 226
-2.3929 -12.7948 5.6536 1 218 44 226
-3.6975 -12.4842 5.6522 1 218 44 226
-3.7124 -12.4756 5.6559 1 218 44 226
-3.729 -12.474 5.6563 1 218 44 226
-3.8393 -12.4429 5.6514 1 218 44 226
-3.8505 -12.425 5.6493 1 218 44 226
-3.8615 -12.4042 5.6441 1 218 44 226
-3.8753 -12.3948 5.6395 1 218 44 226
-3.8932 -12.3962 5.6434 1 218 44 226
-3.9081 -12.3903 5.6419 1 218 44 226
-3.9262 -12.392 5.645 1 218 44 226
-3.9465 -12.4019 5.6537 1 218 44 226
-3.9711 -12.4253 5.6642 1 218 44 226
-4.0991 -12.3959 5.6683 1 218 44 226
-2.1687 -12.8426 5.6375 1 218 44 226
-2.1848 -12.8395 5.6384 1 218 44 226
-2.2006 -12.8347 5.6321 1 218 44 226
-2.2167 -12.8323 5.6376 1 218 44 226
-2.2326 -12.8278 5.6374 1 218 44 226
-2.2484 -12.8232 5.6351 1 218 44 226
-2.2648 -12.8198 5.6354 1 218 44 226
-2.2808 -12.8185 5.6351 1 218 44 226
-2.2965 -12.8135 5.6346 1 218 44 226
-2.3127 -12.8111 5.6348 1 218 44 226
-2.3289 -12.8085 5.634 1 218 44 226
-2.3451 -12.8062 5.6343 1 218 44 226
-2.377 -12.7991 5.6343 1 218 44 226
-3.6974 -12.484 5.6327 1 218 44 226
-3.7131 -12.4779 5.637 1 218 44 226
-3.7286 -12.4724 5.6361 1 218 44 226
-3.8397 -12.4442 5.6331 1 218 44 226
-3.8524 -12.4312 5.6327 1 218 44 226
-3.8628 -12.4082 5.6265 1 218 44 226
-3.8767 -12.3995 5.6223 1 218 44 226
-3.8959 -12.4047 5.6279 1 218 44 226
-3.9084 -12.3914 5.6231 1 218 44 226
-3.9282 -12.3985 5.6286 1 218 44 226
-3.9478 -12.406 5.6362 1 218 44 226
-2.1688 -12.8434 5.6185 1 218 44 226
-2.1846 -12.8387 5.6186 1 218 44 226
-2.2007 -12.8353 5.613 1 218 44 226
-2.2167 -12.8323 5.6177 1 218 44 226
-2.2326 -12.8281 5.6181 1 218 44 226
-2.2486 -12.8244 5.6162 1 218 44 226
-2.2645 -12.8203 5.6162 1 218 44 226
-2.2807 -12.8178 5.6153 1 218 44 226
-2.2965 -12.8135 5.6152 1 218 44 226
-2.3128 -12.8114 5.6155 1 218 44 226
-2.329 -12.8091 5.6149 1 218 44 226
-2.3449 -12.8055 5.6146 1 218 44 226
-2.3607 -12.8007 5.6128 1 218 44 226
-2.3771 -12.7992 5.6154 1 218 44 226
-2.393 -12.7956 5.6151 1 218 44 226
-2.409 -12.7919 5.6124 1 218 44 226
-2.4254 -12.7885 5.6142 1 218 44 226
-2.473 -12.7761 5.6118 1 218 44 226
-3.6982 -12.4867 5.6145 1 218 44 226
-3.7129 -12.4772 5.6178 1 218 44 226
-3.7307 -12.4796 5.6199 1 218 44 226
-3.8404 -12.4463 5.6146 1 218 44 226
-3.8537 -12.4354 5.6152 1 218 44 226
-3.8695 -12.4297 5.6168 1 218 44 226
-3.8769 -12.4001 5.6032 1 218 44 226
-3.8969 -12.4078 5.6099 1 218 44 226
-3.9096 -12.3953 5.6054 1 218 44 226
-3.9367 -12.4251 5.6207 1 218 44 226
-3.9494 -12.4112 5.6191 1 218 44 226
-2.1688 -12.8435 5.5991 1 218 44 226
-2.1845 -12.838 5.5989 1 218 44 226
-2.2008 -12.8362 5.594 1 218 44 226
-2.2165 -12.8307 5.5981 1 218 44 226
-2.2326 -12.8279 5.5986 1 218 44 226
-2.2484 -12.8235 5.5965 1 218 44 226
-2.2646 -12.8209 5.5975 1 218 44 226
-2.2806 -12.8176 5.5959 1 218 44 226
-2.2967 -12.8145 5.5963 1 218 44 226
-2.3126 -12.8103 5.5952 1 218 44 226
-2.3285 -12.8063 5.5943 1 218 44 226
-2.3449 -12.8053 5.5951 1 218 44 226
-2.3607 -12.8004 5.5938 1 218 44 226
-2.3771 -12.7996 5.5957 1 218 44 226
-2.3929 -12.7949 5.595 1 218 44 226
-2.4087 -12.7901 5.5927 1 218 44 226
-2.4248 -12.7854 5.594 1 218 44 226
-2.4413 -12.7843 5.5924 1 218 44 226
-2.4573 -12.7811 5.5938 1 218 44 226
-2.4886 -12.7726 5.5913 1 218 44 226
-3.6977 -12.485 5.5944 1 218 44 226
-3.7134 -12.4789 5.5986 1 218 44 226
-3.7292 -12.4745 5.5983 1 218 44 226
-3.8409 -12.4482 5.5961 1 218 44 226
-3.8572 -12.4467 5.6009 1 218 44 226
-3.8759 -12.4502 5.6067 1 218 44 226
-3.8792 -12.4075 5.5872 1 218 44 226
-3.8988 -12.4153 5.5939 1 218 44 226
-3.9109 -12.3992 5.5878 1 218 44 226
-3.9376 -12.4282 5.6032 1 218 44 226
-3.9507 -12.4153 5.6015 1 218 44 226
-2.1377 -12.8556 5.5827 1 218 44 226
-2.1848 -12.8397 5.5803 1 218 44 226
-2.2007 -12.8358 5.5744 1 218 44 226
-2.2168 -12.8325 5.5791 1 218 44 226
-2.2327 -12.8288 5.5796 1 218 44 226
-2.2484 -12.8235 5.5771 1 218 44 226
-2.2646 -12.8211 5.5783 1 218 44 226
-2.2805 -12.8167 5.5761 1 218 44 226
-2.2966 -12.8139 5.5766 1 218 44 226
-2.3127 -12.8112 5.5767 1 218 44 226
-2.3287 -12.8078 5.5756 1 218 44 226
-2.3446 -12.8038 5.5751 1 218 44 226
-2.3607 -12.8005 5.574 1 218 44 226
-2.3768 -12.7979 5.5761 1 218 44 226
-2.3931 -12.7961 5.5766 1 218 44 226
-2.4088 -12.7909 5.5737 1 218 44 226
-2.4253 -12.7877 5.5751 1 218 44 226
-2.4415 -12.7853 5.5735 1 218 44 226
-2.4573 -12.7813 5.575 1 218 44 226
-3.6971 -12.4828 5.574 1 218 44 226
-3.7127 -12.4766 5.5787 1 218 44 226
-3.7281 -12.471 5.5774 1 218 44 226
-3.8406 -12.447 5.5757 1 218 44 226
-3.8547 -12.4385 5.5779 1 218 44 226
-3.8823 -12.4174 5.5723 1 218 44 226
-3.9167 -12.4176 5.5768 1 218 44 226
-3.9377 -12.4282 5.5838 1 218 44 226
-3.9524 -12.4206 5.5845 1 218 44 226
-4.0841 -12.4027 5.5917 1 218 44 226
-2.1851 -12.8416 5.5617 1 218 44 226
-2.2007 -12.8355 5.555 1 218 44 226
-2.2166 -12.8316 5.5598 1 218 44 226
-2.2327 -12.8283 5.5601 1 218 44 226
-2.2485 -12.8241 5.558 1 218 44 226
-2.2646 -12.8209 5.5588 1 218 44 226
-2.2806 -12.8173 5.5571 1 218 44 226
-2.2967 -12.8145 5.5581 1 218 44 226
-2.3128 -12.8118 5.5577 1 218 44 226
-2.3285 -12.8067 5.5557 1 218 44 226
-2.3449 -12.8054 5.5564 1 218 44 226
-2.361 -12.8022 5.5558 1 218 44 226
-2.377 -12.7988 5.5567 1 218 44 226
-2.3932 -12.7965 5.5569 1 218 44 226
-2.409 -12.7919 5.5548 1 218 44 226
-2.4255 -12.789 5.5568 1 218 44 226
-2.4414 -12.7853 5.5541 1 218 44 226
-2.4574 -12.7815 5.5553 1 218 44 226
-3.6968 -12.4817 5.5542 1 218 44 226
-3.7111 -12.4712 5.557 1 218 44 226
-3.7272 -12.468 5.5566 1 218 44 226
-3.7462 -12.4742 5.561 1 218 44 226
-3.8422 -12.4523 5.5592 1 218 44 226
-3.8556 -12.4414 5.5598 1 218 44 226
-3.9379 -12.4289 5.5648 1 218 44 226
-3.9532 -12.4229 5.5667 1 218 44 226
-4.069 -12.4081 5.5725 1 218 44 226
-4.0835 -12.4009 5.572 1 218 44 226
-4.1002 -12.3991 5.5725 1 218 44 226
-2.1057 -12.8631 5.5468 1 218 44 226
-2.1218 -12.8603 5.5414 1 218 44 226
-2.1379 -12.8567 5.5444 1 218 44 226
-2.1855 -12.8437 5.5433 1 218 44 226
-2.2008 -12.8361 5.5359 1 218 44 226
-2.2169 -12.8332 5.5407 1 218 44 226
-2.2327 -12.8285 5.5408 1 218 44 226
-2.2485 -12.824 5.5386 1 218 44 226
-2.2645 -12.8206 5.5389 1 218 44 226
-2.2806 -12.8172 5.5377 1 218 44 226
-2.2965 -12.8135 5.5378 1 218 44 226
-2.3127 -12.8108 5.5379 1 218 44 226
-2.3288 -12.8083 5.5371 1 218 44 226
-2.3448 -12.8048 5.5368 1 218 44 226
-2.3605 -12.7998 5.535 1 218 44 226
-2.377 -12.7991 5.5379 1 218 44 226
-2.393 -12.7952 5.5375 1 218 44 226
-2.4089 -12.7917 5.5354 1 218 44 226
-2.4254 -12.7887 5.5369 1 218 44 226
-2.4414 -12.7852 5.5348 1 218 44 226
-2.4575 -12.7821 5.5367 1 218 44 226
-2.4736 -12.7794 5.5359 1 218 44 226
-2.489 -12.7749 5.5343 1 218 44 226
-2.5528 -12.76 5.5329 1 218 44 226
-3.6962 -12.4798 5.5341 1 218 44 226
-3.7103 -12.4685 5.5365 1 218 44 226
-3.7265 -12.4654 5.5362 1 218 44 226
-3.7447 -12.4691 5.5399 1 218 44 226
-3.8438 -12.4576 5.5422 1 218 44 226
-3.8572 -12.4466 5.5428 1 218 44 226
-3.9361 -12.4234 5.5429 1 218 44 226
-3.9536 -12.4242 5.5475 1 218 44 226
-4.0829 -12.399 5.5513 1 218 44 226
-4.0992 -12.3961 5.5518 1 218 44 226
-2.1059 -12.8641 5.5279 1 218 44 226
-2.1218 -12.8602 5.5221 1 218 44 226
-2.1378 -12.8563 5.5249 1 218 44 226
-2.1539 -12.8531 5.5267 1 218 44 226
-2.1697 -12.8486 5.5239 1 218 44 226
-2.1849 -12.8402 5.5225 1 218 44 226
-2.2008 -12.8362 5.5166 1 218 44 226
-2.2165 -12.8307 5.5208 1 218 44 226
-2.2326 -12.8279 5.5212 1 218 44 226
-2.2487 -12.8251 5.5198 1 218 44 226
-2.2647 -12.8216 5.5205 1 218 44 226
-2.2805 -12.8169 5.5182 1 218 44 226
-2.2966 -12.8139 5.5192 1 218 44 226
-2.3125 -12.8098 5.5181 1 218 44 226
-2.3287 -12.8076 5.5175 1 218 44 226
-2.3453 -12.8073 5.5187 1 218 44 226
-2.3609 -12.8015 5.5169 1 218 44 226
-2.3769 -12.798 5.5177 1 218 44 226
-2.393 -12.7955 5.5179 1 218 44 226
-2.4091 -12.7923 5.5164 1 218 44 226
-2.4255 -12.789 5.5182 1 218 44 226
-2.4414 -12.7849 5.5153 1 218 44 226
-2.4574 -12.7813 5.5166 1 218 44 226
-2.4737 -12.7799 5.5168 1 218 44 226
-2.5052 -12.7726 5.5163 1 218 44 226
-2.521 -12.7678 5.5137 1 218 44 226
-3.695 -12.4756 5.5129 1 218 44 226
-3.7088 -12.4633 5.5149 1 218 44 226
-3.726 -12.4637 5.5162 1 218 44 226
-3.7446 -12.469 5.5206 1 218 44 226
-3.8441 -12.4586 5.5233 1 218 44 226
-3.8592 -12.4532 5.5264 1 218 44 226
-3.9238 -12.44 5.5288 1 218 44 226
-3.9373 -12.4269 5.5252 1 218 44 226
-3.9566 -12.4338 5.5329 1 218 44 226
-4.0688 -12.4074 5.5334 1 218 44 226
-4.0814 -12.3947 5.5305 1 218 44 226
-4.099 -12.3955 5.5322 1 218 44 226
-2.1058 -12.8638 5.5085 1 218 44 226
-2.1217 -12.8596 5.5025 1 218 44 226
-2.1378 -12.8563 5.5056 1 218 44 226
-2.1537 -12.8523 5.5065 1 218 44 226
-2.17 -12.8501 5.5053 1 218 44 226
-2.1849 -12.8405 5.5033 1 218 44 226
-2.2009 -12.8364 5.4975 1 218 44 226
-2.2167 -12.8321 5.5016 1 218 44 226
-2.2327 -12.8282 5.5021 1 218 44 226
-2.2485 -12.8238 5.5 1 218 44 226
-2.2644 -12.8198 5.5004 1 218 44 226
-2.2804 -12.816 5.4986 1 218 44 226
-2.2967 -12.8146 5.4997 1 218 44 226
-2.3128 -12.8115 5.4996 1 218 44 226
-2.3289 -12.8085 5.4986 1 218 44 226
-2.3449 -12.805 5.4984 1 218 44 226
-2.3609 -12.8019 5.4974 1 218 44 226
-2.377 -12.7986 5.4991 1 218 44 226
-2.3929 -12.7946 5.4987 1 218 44 226
-2.4089 -12.7914 5.4967 1 218 44 226
-2.4255 -12.7891 5.4985 1 218 44 226
-2.4411 -12.7835 5.4955 1 218 44 226
-2.4574 -12.7814 5.4978 1 218 44 226
-2.4736 -12.7791 5.4972 1 218 44 226
-2.4891 -12.7755 5.496 1 218 44 226
-2.505 -12.7715 5.4971 1 218 44 226
-2.5212 -12.769 5.4949 1 218 44 226
-2.6647 -12.7361 5.4982 1 218 44 226
-3.6837 -12.4938 5.5049 1 218 44 226
-3.6949 -12.4753 5.4935 1 218 44 226
-3.7095 -12.4657 5.4967 1 218 44 226
-3.726 -12.4637 5.4969 1 218 44 226
-3.7453 -12.4711 5.5022 1 218 44 226
-3.8605 -12.4572 5.5089 1 218 44 226
-3.9245 -12.4423 5.5105 1 218 44 226
-3.9395 -12.434 5.509 1 218 44 226
-3.9564 -12.4331 5.5128 1 218 44 226
-4.0673 -12.4028 5.5116 1 218 44 226
-4.0823 -12.3972 5.5123 1 218 44 226
-4.0996 -12.3975 5.5137 1 218 44 226
-2.1056 -12.8626 5.4887 1 218 44 226
-2.122 -12.8611 5.4839 1 218 44 226
-2.1377 -12.8558 5.4861 1 218 44 226
-2.1539 -12.8535 5.4882 1 218 44 226
-2.17 -12.85 5.486 1 218 44 226
-2.1847 -12.8393 5.4835 1 218 44 226
-2.2007 -12.8352 5.4777 1 218 44 226
-2.2166 -12.8312 5.4824 1 218 44 226
-2.2327 -12.8285 5.483 1 218 44 226
-2.2488 -12.8255 5.4814 1 218 44 226
-2.2645 -12.8203 5.4814 1 218 44 226
-2.2808 -12.8183 5.4803 1 218 44 226
-2.2965 -12.8135 5.4804 1 218 44 226
-2.3129 -12.8122 5.4807 1 218 44 226
-2.3287 -12.8076 5.4789 1 218 44 226
-2.3448 -12.8046 5.4789 1 218 44 226
-2.361 -12.8024 5.4788 1 218 44 226
-2.3767 -12.7974 5.4789 1 218 44 226
-2.3931 -12.7959 5.4795 1 218 44 226
-2.409 -12.7917 5.4776 1 218 44 226
-2.4253 -12.7879 5.4792 1 218 44 226
-2.4414 -12.7849 5.4768 1 218 44 226
-2.4575 -12.7819 5.4788 1 218 44 226
-2.4737 -12.7798 5.4782 1 218 44 226
-2.4893 -12.7764 5.4771 1 218 44 226
-2.5053 -12.7728 5.4784 1 218 44 226
-2.521 -12.768 5.4753 1 218 44 226
-2.5373 -12.7658 5.4776 1 218 44 226
-2.5531 -12.7614 5.4757 1 218 44 226
-2.569 -12.7578 5.476 1 218 44 226
-2.5852 -12.7552 5.481 1 218 44 226
-3.6845 -12.4967 5.4869 1 218 44 226
-3.6967 -12.4815 5.477 1 218 44 226
-3.7105 -12.469 5.4789 1 218 44 226
-3.7288 -12.4733 5.4818 1 218 44 226
-3.7486 -12.4822 5.4874 1 218 44 226
-3.8604 -12.4569 5.4895 1 218 44 226
-3.8765 -12.4521 5.4915 1 218 44 226
-3.9083 -12.4454 5.4918 1 218 44 226
-3.9242 -12.4413 5.4907 1 218 44 226
-3.941 -12.4387 5.4918 1 218 44 226
-4.0676 -12.4037 5.4932 1 218 44 226
-4.0823 -12.3971 5.493 1 218 44 226
-4.0996 -12.3974 5.4944 1 218 44 226
-2.1056 -12.8624 5.4694 1 218 44 226
-2.1219 -12.8608 5.4645 1 218 44 226
-2.1372 -12.8527 5.4655 1 218 44 226
-2.154 -12.8539 5.4687 1 218 44 226
-2.1699 -12.8498 5.4666 1 218 44 226
-2.1847 -12.8387 5.464 1 218 44 226
-2.2009 -12.8364 5.4589 1 218 44 226
-2.2164 -12.83 5.4622 1 218 44 226
-2.2327 -12.8286 5.4637 1 218 44 226
-2.2485 -12.8239 5.4615 1 218 44 226
-2.2643 -12.819 5.4611 1 218 44 226
-2.2808 -12.8187 5.4613 1 218 44 226
-2.2966 -12.8138 5.4608 1 218 44 226
-2.3129 -12.8118 5.4612 1 218 44 226
-2.3291 -12.8099 5.4607 1 218 44 226
-2.3449 -12.8054 5.46 1 218 44 226
-2.361 -12.802 5.4589 1 218 44 226
-2.3769 -12.7983 5.4605 1 218 44 226
-2.393 -12.7951 5.4604 1 218 44 226
-2.409 -12.7917 5.4584 1 218 44 226
-2.4254 -12.7883 5.4597 1 218 44 226
-2.4416 -12.7857 5.458 1 218 44 226
-2.4572 -12.7807 5.459 1 218 44 226
-2.4737 -12.7798 5.459 1 218 44 226
-2.4892 -12.7758 5.4576 1 218 44 226
-2.5053 -12.7731 5.4593 1 218 44 226
-2.5215 -12.7707 5.4572 1 218 44 226
-2.5372 -12.7656 5.4583 1 218 44 226
-2.5532 -12.7621 5.4567 1 218 44 226
-2.5689 -12.757 5.4564 1 218 44 226
-2.5853 -12.7557 5.462 1 218 44 226
-2.6013 -12.7526 5.4568 1 218 44 226
-3.7011 -12.4964 5.4643 1 218 44 226
-3.7143 -12.4819 5.4653 1 218 44 226
-3.7319 -12.4834 5.4675 1 218 44 226
-4.0847 -12.4046 5.477 1 218 44 226
-2.1056 -12.8625 5.4501 1 218 44 226
-2.1217 -12.8591 5.4445 1 218 44 226
-2.1372 -12.8525 5.4462 1 218 44 226
-2.1537 -12.8519 5.449 1 218 44 226
-2.17 -12.8502 5.4476 1 218 44 226
-2.1846 -12.8383 5.4446 1 218 44 226
-2.2007 -12.8357 5.4394 1 218 44 226
-2.2167 -12.8316 5.4442 1 218 44 226
-2.2327 -12.8283 5.4444 1 218 44 226
-2.2485 -12.8236 5.4422 1 218 44 226
-2.2644 -12.8199 5.4427 1 218 44 226
-2.2806 -12.8176 5.4415 1 218 44 226
-2.2969 -12.8156 5.4429 1 218 44 226
-2.3125 -12.8101 5.4413 1 218 44 226
-2.3286 -12.8069 5.4402 1 218 44 226
-2.3447 -12.8042 5.4403 1 218 44 226
-2.3608 -12.8013 5.4399 1 218 44 226
-2.3767 -12.7974 5.4404 1 218 44 226
-2.3927 -12.7938 5.4402 1 218 44 226
-2.4093 -12.7936 5.4399 1 218 44 226
-2.4255 -12.789 5.4412 1 218 44 226
-2.4414 -12.785 5.4384 1 218 44 226
-2.4576 -12.7824 5.4405 1 218 44 226
-2.4735 -12.7784 5.4392 1 218 44 226
-2.4895 -12.7774 5.4391 1 218 44 226
-2.5055 -12.7739 5.4404 1 218 44 226
-2.5213 -12.7693 5.4379 1 218 44 226
-2.5373 -12.7658 5.4392 1 218 44 226
-2.5535 -12.7638 5.4382 1 218 44 226
-2.5695 -12.76 5.4385 1 218 44 226
-2.5853 -12.7558 5.4429 1 218 44 226
-2.6173 -12.7491 5.4385 1 218 44 226
-2.6331 -12.7447 5.4366 1 218 44 226
-2.1056 -12.8627 5.431 1 218 44 226
-2.1216 -12.8587 5.4251 1 218 44 226
-2.1372 -12.8527 5.4271 1 218 44 226
-2.1541 -12.8541 5.4308 1 218 44 226
-2.1699 -12.8494 5.4285 1 218 44 226
-2.1845 -12.8377 5.4256 1 218 44 226
-2.2005 -12.8345 5.4197 1 218 44 226
-2.2169 -12.8331 5.4251 1 218 44 226
-2.2327 -12.8283 5.4252 1 218 44 226
-2.2486 -12.8241 5.4232 1 218 44 226
-2.2645 -12.82 5.4236 1 218 44 226
-2.2805 -12.817 5.4221 1 218 44 226
-2.2968 -12.8147 5.4228 1 218 44 226
-2.3125 -12.8099 5.422 1 218 44 226
-2.3289 -12.8085 5.4217 1 218 44 226
-2.3451 -12.806 5.4219 1 218 44 226
-2.361 -12.802 5.4209 1 218 44 226
-2.3767 -12.797 5.4216 1 218 44 226
-2.3928 -12.7942 5.4216 1 218 44 226
-2.4088 -12.7908 5.4196 1 218 44 226
-2.4256 -12.7894 5.4222 1 218 44 226
-2.4415 -12.7855 5.4194 1 218 44 226
-2.4572 -12.7805 5.4205 1 218 44 226
-2.4733 -12.7777 5.4197 1 218 44 226
-2.4891 -12.7755 5.4196 1 218 44 226
-2.5053 -12.7731 5.4209 1 218 44 226
-2.5212 -12.7687 5.418 1 218 44 226
-2.5373 -12.7658 5.42 1 218 44 226
-2.5532 -12.7622 5.4184 1 218 44 226
-2.5691 -12.7582 5.4185 1 218 44 226
-2.5852 -12.7554 5.4235 1 218 44 226
-2.6012 -12.7521 5.4187 1 218 44 226
-2.6173 -12.7491 5.4193 1 218 44 226
-2.6331 -12.7447 5.4174 1 218 44 226
-2.6652 -12.7383 5.4228 1 218 44 226
-2.6812 -12.7349 5.4174 1 218 44 226
-2.1062 -12.8662 5.4133 1 218 44 226
-2.122 -12.8612 5.407 1 218 44 226
-2.1373 -12.8533 5.4082 1 218 44 226
-2.1534 -12.8505 5.41 1 218 44 226
-2.1698 -12.8489 5.4086 1 218 44 226
-2.185 -12.8407 5.4072 1 218 44 226
-2.2005 -12.834 5.4003 1 218 44 226
-2.2167 -12.8316 5.4058 1 218 44 226
-2.2328 -12.8289 5.4068 1 218 44 226
-2.2485 -12.8239 5.4039 1 218 44 226
-2.2646 -12.8207 5.4047 1 218 44 226
-2.2805 -12.817 5.4029 1 218 44 226
-2.2966 -12.8136 5.4037 1 218 44 226
-2.3125 -12.8098 5.4028 1 218 44 226
-2.3284 -12.8059 5.4014 1 218 44 226
-2.345 -12.8055 5.4025 1 218 44 226
-2.3608 -12.8013 5.4015 1 218 44 226
-2.377 -12.7989 5.4032 1 218 44 226
-2.3931 -12.7957 5.4031 1 218 44 226
-2.4091 -12.7923 5.401 1 218 44 226
-2.4253 -12.788 5.4024 1 218 44 226
-2.4413 -12.7842 5.3997 1 218 44 226
-2.4578 -12.7838 5.4028 1 218 44 226
-2.4733 -12.7777 5.4005 1 218 44 226
-2.4889 -12.7743 5.3994 1 218 44 226
-2.5051 -12.772 5.4012 1 218 44 226
-2.5214 -12.7699 5.3997 1 218 44 226
-2.537 -12.7645 5.4002 1 218 44 226
-2.553 -12.7614 5.3988 1 218 44 226
-2.5692 -12.7589 5.3996 1 218 44 226
-2.5852 -12.7552 5.4042 1 218 44 226
-2.6011 -12.7516 5.3993 1 218 44 226
-2.6171 -12.7478 5.3996 1 218 44 226
-2.6333 -12.7454 5.3985 1 218 44 226
-2.6492 -12.7417 5.4031 1 218 44 226
-2.6812 -12.7348 5.3983 1 218 44 226
-2.7136 -12.7282 5.4013 1 218 44 226
-2.1063 -12.8666 5.3942 1 218 44 226
-2.1221 -12.8619 5.3881 1 218 44 226
-2.1376 -12.8552 5.3898 1 218 44 226
-2.1538 -12.8525 5.3917 1 218 44 226
-2.1697 -12.8487 5.3898 1 218 44 226
-2.1847 -12.8387 5.3873 1 218 44 226
-2.2008 -12.8358 5.3819 1 218 44 226
-2.2166 -12.8314 5.3865 1 218 44 226
-2.2327 -12.8281 5.3868 1 218 44 226
-2.2485 -12.8239 5.3847 1 218 44 226
-2.2648 -12.8217 5.386 1 218 44 226
-2.2807 -12.8178 5.3841 1 218 44 226
-2.2968 -12.8152 5.3847 1 218 44 226
-2.3126 -12.8102 5.3843 1 218 44 226
-2.3288 -12.8081 5.3832 1 218 44 226
-2.3448 -12.8043 5.3828 1 218 44 226
-2.3609 -12.8014 5.3824 1 218 44 226
-2.377 -12.7986 5.3839 1 218 44 226
-2.393 -12.7954 5.3838 1 218 44 226
-2.4094 -12.7941 5.3826 1 218 44 226
-2.4254 -12.7884 5.3834 1 218 44 226
-2.4414 -12.7849 5.3809 1 218 44 226
-2.4574 -12.7816 5.3827 1 218 44 226
-2.4735 -12.7784 5.3817 1 218 44 226
-2.4891 -12.7754 5.3812 1 218 44 226
-2.5055 -12.7738 5.3828 1 218 44 226
-2.5214 -12.7697 5.38 1 218 44 226
-2.5374 -12.7663 5.3819 1 218 44 226
-2.553 -12.7611 5.3796 1 218 44 226
-2.5691 -12.7583 5.3802 1 218 44 226
-2.5853 -12.7559 5.3854 1 218 44 226
-2.6009 -12.7506 5.3797 1 218 44 226
-2.6172 -12.7486 5.3807 1 218 44 226
-2.6334 -12.7462 5.3797 1 218 44 226
-2.6489 -12.7404 5.3834 1 218 44 226
-2.6653 -12.7389 5.3847 1 218 44 226
-2.6813 -12.7355 5.3794 1 218 44 226
-2.6974 -12.7324 5.3862 1 218 44 226
-2.7137 -12.7283 5.3821 1 218 44 226
-2.7454 -12.7203 5.3783 1 218 44 226
-2.1062 -12.8661 5.3749 1 218 44 226
-2.1221 -12.8619 5.3694 1 218 44 226
-2.1373 -12.8535 5.3699 1 218 44 226
-2.154 -12.854 5.3732 1 218 44 226
-2.1703 -12.8519 5.3715 1 218 44 226
-2.1851 -12.8414 5.3692 1 218 44 226
-2.2007 -12.8355 5.3626 1 218 44 226
-2.2166 -12.831 5.3672 1 218 44 226
-2.2328 -12.8287 5.3684 1 218 44 226
-2.2488 -12.8256 5.3663 1 218 44 226
-2.2647 -12.8215 5.3667 1 218 44 226
-2.2807 -12.8178 5.3649 1 218 44 226
-2.2965 -12.8135 5.3653 1 218 44 226
-2.3127 -12.8112 5.3651 1 218 44 226
-2.3286 -12.8067 5.3635 1 218 44 226
-2.3448 -12.8043 5.3637 1 218 44 226
-2.3609 -12.8018 5.3634 1 218 44 226
-2.3769 -12.7981 5.3645 1 218 44 226
-2.3928 -12.7944 5.3642 1 218 44 226
-2.4089 -12.7915 5.3624 1 218 44 226
-2.4254 -12.7884 5.3638 1 218 44 226
-2.4412 -12.784 5.3614 1 218 44 226
-2.4575 -12.7817 5.3636 1 218 44 226
-2.4734 -12.7779 5.3623 1 218 44 226
-2.4891 -12.7753 5.3616 1 218 44 226
-2.5053 -12.773 5.3633 1 218 44 226
-2.5213 -12.7697 5.3614 1 218 44 226
-2.5375 -12.7672 5.3631 1 218 44 226
-2.5531 -12.7615 5.3611 1 218 44 226
-2.569 -12.7578 5.3609 1 218 44 226
-2.5854 -12.7564 5.3665 1 218 44 226
-2.6012 -12.7521 5.3612 1 218 44 226
-2.6171 -12.7479 5.3613 1 218 44 226
-2.6334 -12.746 5.3605 1 218 44 226
-2.6491 -12.7413 5.3647 1 218 44 226
-2.6655 -12.7397 5.3659 1 218 44 226
-2.6814 -12.7357 5.3603 1 218 44 226
-2.6974 -12.7322 5.367 1 218 44 226
-2.7616 -12.7177 5.3629 1 218 44 226
-2.7775 -12.7138 5.3646 1 218 44 226
-2.8253 -12.703 5.3626 1 218 44 226
-2.1059 -12.8644 5.355 1 218 44 226
-2.1224 -12.8636 5.3505 1 218 44 226
-2.1379 -12.8566 5.3526 1 218 44 226
-2.1548 -12.8583 5.3558 1 218 44 226
-2.1699 -12.8498 5.352 1 218 44 226
-2.1849 -12.8401 5.35 1 218 44 226
-2.2008 -12.8357 5.3436 1 218 44 226
-2.2168 -12.8322 5.3486 1 218 44 226
-2.2328 -12.829 5.3489 1 218 44 226
-2.2488 -12.8253 5.3471 1 218 44 226
-2.2646 -12.821 5.3474 1 218 44 226
-2.2807 -12.8177 5.3463 1 218 44 226
-2.2964 -12.8127 5.3459 1 218 44 226
-2.3126 -12.8102 5.3455 1 218 44 226
-2.3288 -12.8079 5.3448 1 218 44 226
-2.3445 -12.8027 5.3439 1 218 44 226
-2.3609 -12.8014 5.3441 1 218 44 226
-2.3767 -12.7969 5.3449 1 218 44 226
-2.3929 -12.7947 5.3453 1 218 44 226
-2.409 -12.7917 5.3434 1 218 44 226
-2.4253 -12.7878 5.3449 1 218 44 226
-2.4412 -12.7836 5.3421 1 218 44 226
-2.4575 -12.7818 5.3445 1 218 44 226
-2.4732 -12.777 5.3428 1 218 44 226
-2.489 -12.7746 5.3426 1 218 44 226
-2.505 -12.7712 5.3435 1 218 44 226
-2.5211 -12.7686 5.3413 1 218 44 226
-2.5373 -12.7658 5.3434 1 218 44 226
-2.5535 -12.7636 5.3424 1 218 44 226
-2.5693 -12.7592 5.3423 1 218 44 226
-2.5851 -12.7546 5.3466 1 218 44 226
-2.6013 -12.7523 5.3422 1 218 44 226
-2.6173 -12.7492 5.3427 1 218 44 226
-2.6334 -12.7462 5.3414 1 218 44 226
-2.6495 -12.743 5.3463 1 218 44 226
-2.6656 -12.7402 5.347 1 218 44 226
-2.6814 -12.7357 5.3412 1 218 44 226
-2.6973 -12.7318 5.3477 1 218 44 226
-2.7135 -12.7277 5.3436 1 218 44 226
-2.7299 -12.7259 5.3462 1 218 44 226
-2.7457 -12.7215 5.3406 1 218 44 226
-2.7617 -12.7184 5.344 1 218 44 226
-2.7776 -12.7145 5.3463 1 218 44 226
-2.1063 -12.8664 5.3367 1 218 44 226
-2.1225 -12.8639 5.332 1 218 44 226
-2.1384 -12.8596 5.3342 1 218 44 226
-2.1548 -12.8585 5.3368 1 218 44 226
-2.1703 -12.8518 5.3332 1 218 44 226
-2.1846 -12.8386 5.3298 1 218 44 226
-2.2008 -12.836 5.3246 1 218 44 226
-2.2165 -12.8309 5.3289 1 218 44 226
-2.2327 -12.8283 5.3299 1 218 44 226
-2.2486 -12.824 5.3274 1 218 44 226
-2.2647 -12.8212 5.3284 1 218 44 226
-2.2803 -12.8158 5.3259 1 218 44 226
-2.2964 -12.8127 5.3268 1 218 44 226
-2.3128 -12.8113 5.3269 1 218 44 226
-2.3288 -12.8079 5.3258 1 218 44 226
-2.3446 -12.8034 5.3251 1 218 44 226
-2.3607 -12.8006 5.3247 1 218 44 226
-2.3767 -12.7973 5.326 1 218 44 226
-2.3929 -12.795 5.3263 1 218 44 226
-2.4089 -12.7913 5.3241 1 218 44 226
-2.4252 -12.787 5.3255 1 218 44 226
-2.4413 -12.7841 5.3232 1 218 44 226
-2.4574 -12.7814 5.3252 1 218 44 226
-2.473 -12.7782 5.3242 1 218 44 226
-2.4894 -12.7768 5.324 1 218 44 226
-2.5049 -12.771 5.3243 1 218 44 226
-2.521 -12.7681 5.3225 1 218 44 226
-2.5372 -12.7657 5.3247 1 218 44 226
-2.553 -12.7611 5.3227 1 218 44 226
-2.5692 -12.7588 5.3231 1 218 44 226
-2.585 -12.7541 5.3273 1 218 44 226
-2.6016 -12.7537 5.3237 1 218 44 226
-2.6174 -12.7494 5.3237 1 218 44 226
-2.6332 -12.745 5.3218 1 218 44 226
-2.6494 -12.7425 5.3269 1 218 44 226
-2.6654 -12.7394 5.3275 1 218 44 226
-2.6816 -12.7367 5.3225 1 218 44 226
-2.6973 -12.7318 5.3286 1 218 44 226
-2.714 -12.73 5.3255 1 218 44 226
-2.7299 -12.7262 5.3272 1 218 44 226
-2.7458 -12.722 5.3217 1 218 44 226
-2.7619 -12.7192 5.3253 1 218 44 226
-2.7933 -12.7118 5.3256 1 218 44 226
-2.8092 -12.7075 5.3257 1 218 44 226
-2.1059 -12.8641 5.3167 1 218 44 226
-2.1225 -12.8639 5.3124 1 218 44 226
-2.1384 -12.8599 5.3157 1 218 44 226
-2.1548 -12.8586 5.3177 1 218 44 226
-2.1696 -12.8477 5.3129 1 218 44 226
-2.1847 -12.8387 5.3108 1 218 44 226
-2.201 -12.8371 5.306 1 218 44 226
-2.2165 -12.8306 5.3097 1 218 44 226
-2.2324 -12.8267 5.3097 1 218 44 226
-2.2485 -12.8234 5.3086 1 218 44 226
-2.2645 -12.82 5.3088 1 218 44 226
-2.2803 -12.8156 5.3072 1 218 44 226
-2.2965 -12.8134 5.308 1 218 44 226
-2.3124 -12.809 5.3074 1 218 44 226
-2.3285 -12.8062 5.3064 1 218 44 226
-2.3447 -12.8041 5.3068 1 218 44 226
-2.3609 -12.8015 5.306 1 218 44 226
-2.377 -12.7987 5.3075 1 218 44 226
-2.3929 -12.7948 5.3071 1 218 44 226
-2.409 -12.7918 5.3052 1 218 44 226
-2.4252 -12.7874 5.3066 1 218 44 226
-2.4414 -12.7849 5.3045 1 218 44 226
-2.4574 -12.7812 5.3061 1 218 44 226
-2.4731 -12.7787 5.3054 1 218 44 226
-2.489 -12.7749 5.3046 1 218 44 226
-2.5051 -12.7718 5.306 1 218 44 226
-2.521 -12.7681 5.303 1 218 44 226
-2.5373 -12.7661 5.3053 1 218 44 226
-2.5531 -12.7618 5.3034 1 218 44 226
-2.5693 -12.7594 5.3043 1 218 44 226
-2.5856 -12.7573 5.3095 1 218 44 226
-2.6013 -12.7523 5.304 1 218 44 226
-2.6173 -12.749 5.3045 1 218 44 226
-2.6333 -12.7458 5.3031 1 218 44 226
-2.6495 -12.7432 5.3082 1 218 44 226
-2.6653 -12.7386 5.3081 1 218 44 226
-2.6816 -12.7367 5.3035 1 218 44 226
-2.6971 -12.7312 5.3093 1 218 44 226
-2.7138 -12.729 5.306 1 218 44 226
-2.7297 -12.7253 5.3078 1 218 44 226
-2.7459 -12.7226 5.3029 1 218 44 226
-2.7618 -12.7189 5.3061 1 218 44 226
-2.7935 -12.7124 5.3067 1 218 44 226
-2.1059 -12.8639 5.2975 1 218 44 226
-2.1223 -12.8626 5.2933 1 218 44 226
-2.1387 -12.8618 5.2969 1 218 44 226
-2.1544 -12.8562 5.2976 1 218 44 226
-2.17 -12.8503 5.2949 1 218 44 226
-2.1848 -12.8393 5.292 1 218 44 226
-2.2008 -12.8358 5.2864 1 218 44 226
-2.2166 -12.831 5.2908 1 218 44 226
-2.2324 -12.8266 5.2911 1 218 44 226
-2.2487 -12.8247 5.2896 1 218 44 226
-2.2644 -12.8194 5.2895 1 218 44 226
-2.2806 -12.8175 5.2885 1 218 44 226
-2.2967 -12.8145 5.2894 1 218 44 226
-2.3126 -12.8105 5.2884 1 218 44 226
-2.3287 -12.8073 5.2874 1 218 44 226
-2.3445 -12.8028 5.2867 1 218 44 226
-2.3608 -12.8009 5.2867 1 218 44 226
-2.3767 -12.7969 5.2877 1 218 44 226
-2.3928 -12.7941 5.2878 1 218 44 226
-2.4088 -12.7906 5.2856 1 218 44 226
-2.4254 -12.7881 5.2878 1 218 44 226
-2.4413 -12.7844 5.2852 1 218 44 226
-2.4575 -12.782 5.2874 1 218 44 226
-2.4731 -12.7788 5.2868 1 218 44 226
-2.489 -12.7745 5.2849 1 218 44 226
-2.5053 -12.7727 5.2869 1 218 44 226
-2.5211 -12.7686 5.2846 1 218 44 226
-2.5373 -12.766 5.2867 1 218 44 226
-2.5529 -12.7605 5.2843 1 218 44 226
-2.5694 -12.7595 5.2852 1 218 44 226
-2.5856 -12.7573 5.2905 1 218 44 226
-2.6014 -12.7526 5.2851 1 218 44 226
-2.617 -12.7476 5.2849 1 218 44 226
-2.6333 -12.7456 5.284 1 218 44 226
-2.6493 -12.7424 5.2888 1 218 44 226
-2.6651 -12.7378 5.2887 1 218 44 226
-2.6813 -12.7352 5.2838 1 218 44 226
-2.6977 -12.7339 5.2913 1 218 44 226
-2.7138 -12.729 5.2874 1 218 44 226
-2.7299 -12.7259 5.289 1 218 44 226
-2.7459 -12.7224 5.2837 1 218 44 226
-2.7621 -12.7199 5.2875 1 218 44 226
-2.7776 -12.7144 5.289 1 218 44 226
-2.7931 -12.7108 5.287 1 218 44 226
-2.8094 -12.7084 5.288 1 218 44 226
-2.9371 -12.6799 5.2886 1 218 44 226
-2.1059 -12.8641 5.2785 1 218 44 226
-2.1223 -12.8626 5.2737 1 218 44 226
-2.1383 -12.8594 5.2773 1 218 44 226
-2.1544 -12.856 5.2785 1 218 44 226
-2.1704 -12.8524 5.2767 1 218 44 226
-2.1845 -12.8377 5.2727 1 218 44 226
-2.2006 -12.8345 5.2673 1 218 44 226
-2.2167 -12.8316 5.272 1 218 44 226
-2.2327 -12.8282 5.2727 1 218 44 226
-2.2487 -12.8249 5.2711 1 218 44 226
-2.2645 -12.82 5.2707 1 218 44 226
-2.2804 -12.8159 5.2693 1 218 44 226
-2.2965 -12.8132 5.2698 1 218 44 226
-2.3123 -12.8085 5.2691 1 218 44 226
-2.3287 -12.8075 5.2689 1 218 44 226
-2.3445 -12.8031 5.2683 1 218 44 226
-2.3607 -12.8004 5.2674 1 218 44 226
-2.3766 -12.7965 5.2685 1 218 44 226
-2.3926 -12.7931 5.2683 1 218 44 226
-2.409 -12.7915 5.267 1 218 44 226
-2.4255 -12.7888 5.2691 1 218 44 226
-2.4414 -12.7847 5.2667 1 218 44 226
-2.4574 -12.7814 5.2681 1 218 44 226
-2.473 -12.7781 5.267 1 218 44 226
-2.4889 -12.774 5.2662 1 218 44 226
-2.5051 -12.7719 5.2675 1 218 44 226
-2.521 -12.7679 5.2653 1 218 44 226
-2.5375 -12.7671 5.2677 1 218 44 226
-2.5529 -12.7607 5.2649 1 218 44 226
-2.5695 -12.7602 5.2665 1 218 44 226
-2.5853 -12.7555 5.2707 1 218 44 226
-2.6014 -12.7529 5.2662 1 218 44 226
-2.6175 -12.7498 5.2667 1 218 44 226
-2.6331 -12.7445 5.2645 1 218 44 226
-2.6494 -12.7426 5.2703 1 218 44 226
-2.6653 -12.7385 5.27 1 218 44 226
-2.6817 -12.737 5.2655 1 218 44 226
-2.6975 -12.7329 5.2719 1 218 44 226
-2.714 -12.7299 5.2683 1 218 44 226
-2.7298 -12.7255 5.2698 1 218 44 226
-2.7459 -12.7228 5.2648 1 218 44 226
-2.7619 -12.7191 5.2681 1 218 44 226
-2.7777 -12.715 5.2702 1 218 44 226
-2.7935 -12.7125 5.2692 1 218 44 226
-2.8096 -12.7095 5.2698 1 218 44 226
-2.8259 -12.7057 5.2683 1 218 44 226
-2.8894 -12.6915 5.2674 1 218 44 226
-2.1061 -12.8651 5.2599 1 218 44 226
-2.1221 -12.8615 5.2547 1 218 44 226
-2.1383 -12.8591 5.2577 1 218 44 226
-2.1542 -12.855 5.259 1 218 44 226
-2.1704 -12.8527 5.2573 1 218 44 226
-2.1848 -12.8397 5.254 1 218 44 226
-2.2009 -12.8363 5.2485 1 218 44 226
-2.2165 -12.8308 5.2526 1 218 44 226
-2.2322 -12.8254 5.2526 1 218 44 226
-2.2483 -12.8225 5.2511 1 218 44 226
-2.2644 -12.8198 5.2516 1 218 44 226
-2.2805 -12.8166 5.25 1 218 44 226
-2.2965 -12.8131 5.2507 1 218 44 226
-2.3124 -12.8093 5.2499 1 218 44 226
-2.3285 -12.8061 5.2488 1 218 44 226
-2.3444 -12.8025 5.2485 1 218 44 226
-2.3607 -12.8006 5.2485 1 218 44 226
-2.3766 -12.7966 5.2495 1 218 44 226
-2.3929 -12.7946 5.2499 1 218 44 226
-2.4089 -12.7913 5.2479 1 218 44 226
-2.4255 -12.7888 5.25 1 218 44 226
-2.4415 -12.7854 5.2476 1 218 44 226
-2.4571 -12.7801 5.2485 1 218 44 226
-2.4732 -12.779 5.2488 1 218 44 226
-2.4893 -12.7763 5.2476 1 218 44 226
-2.505 -12.7712 5.2482 1 218 44 226
-2.5209 -12.7672 5.2459 1 218 44 226
-2.5366 -12.7625 5.2472 1 218 44 226
-2.553 -12.7613 5.2466 1 218 44 226
-2.5693 -12.7589 5.247 1 218 44 226
-2.5853 -12.7559 5.2518 1 218 44 226
-2.6011 -12.7515 5.2466 1 218 44 226
-2.6173 -12.7489 5.2474 1 218 44 226
-2.6334 -12.7461 5.2461 1 218 44 226
-2.6495 -12.7429 5.2509 1 218 44 226
-2.6656 -12.74 5.2521 1 218 44 226
-2.6815 -12.7363 5.2462 1 218 44 226
-2.6973 -12.732 5.2525 1 218 44 226
-2.714 -12.7296 5.2496 1 218 44 226
-2.7298 -12.7256 5.2508 1 218 44 226
-2.7461 -12.7233 5.2461 1 218 44 226
-2.7621 -12.7203 5.2496 1 218 44 226
-2.778 -12.7162 5.2517 1 218 44 226
-2.7932 -12.7111 5.2491 1 218 44 226
-2.8094 -12.7085 5.2504 1 218 44 226
-2.8895 -12.6918 5.249 1 218 44 226
-2.1062 -12.8659 5.2411 1 218 44 226
-2.1222 -12.8621 5.2354 1 218 44 226
-2.1383 -12.8592 5.2391 1 218 44 226
-2.1543 -12.8555 5.2402 1 218 44 226
-2.1703 -12.852 5.2384 1 218 44 226
-2.1847 -12.839 5.2347 1 218 44 226
-2.2003 -12.833 5.2286 1 218 44 226
-2.2165 -12.8308 5.2337 1 218 44 226
-2.2324 -12.8264 5.234 1 218 44 226
-2.2486 -12.8239 5.2327 1 218 44 226
-2.2642 -12.8182 5.232 1 218 44 226
-2.2803 -12.8157 5.2311 1 218 44 226
-2.2968 -12.8149 5.2325 1 218 44 226
-2.3123 -12.8088 5.2312 1 218 44 226
-2.3285 -12.8062 5.2304 1 218 44 226
-2.3446 -12.8033 5.2299 1 218 44 226
-2.3608 -12.8009 5.2296 1 218 44 226
-2.3768 -12.7975 5.2309 1 218 44 226
-2.3929 -12.7945 5.2309 1 218 44 226
-2.4089 -12.7914 5.229 1 218 44 226
-2.4253 -12.7877 5.2306 1 218 44 226
-2.4411 -12.7834 5.2282 1 218 44 226
-2.4575 -12.7821 5.2303 1 218 44 226
-2.4729 -12.7778 5.2289 1 218 44 226
-2.4889 -12.7743 5.2283 1 218 44 226
-2.5051 -12.7716 5.2299 1 218 44 226
-2.5213 -12.7694 5.2279 1 218 44 226
-2.5372 -12.7655 5.229 1 218 44 226
-2.5535 -12.7635 5.2281 1 218 44 226
-2.5696 -12.7607 5.2287 1 218 44 226
-2.5856 -12.7571 5.2333 1 218 44 226
-2.6015 -12.7532 5.2283 1 218 44 226
-2.6175 -12.7499 5.2288 1 218 44 226
-2.6331 -12.7444 5.2264 1 218 44 226
-2.6495 -12.7431 5.2325 1 218 44 226
-2.6655 -12.7397 5.2325 1 218 44 226
-2.6816 -12.7367 5.2274 1 218 44 226
-2.6972 -12.7316 5.2333 1 218 44 226
-2.7138 -12.7291 5.2299 1 218 44 226
-2.7301 -12.7268 5.2323 1 218 44 226
-2.7454 -12.7201 5.2258 1 218 44 226
-2.7616 -12.7179 5.2296 1 218 44 226
-2.7783 -12.7175 5.2332 1 218 44 226
-2.7938 -12.7138 5.2317 1 218 44 226
-2.8097 -12.7101 5.2321 1 218 44 226
-2.8261 -12.7066 5.2307 1 218 44 226
-2.8419 -12.702 5.2303 1 218 44 226
-2.8736 -12.6958 5.2302 1 218 44 226
-2.8894 -12.6917 5.2295 1 218 44 226
-2.9053 -12.6877 5.2303 1 218 44 226
-2.9371 -12.6799 5.2311 1 218 44 226
-2.106 -12.8644 5.2215 1 218 44 226
-2.122 -12.8607 5.2163 1 218 44 226
-2.138 -12.8573 5.2189 1 218 44 226
-2.1539 -12.8533 5.2203 1 218 44 226
-2.1701 -12.8506 5.2189 1 218 44 226
-2.1848 -12.8395 5.2159 1 218 44 226
-2.2006 -12.8349 5.21 1 218 44 226
-2.2164 -12.8303 5.2144 1 218 44 226
-2.2327 -12.8281 5.2156 1 218 44 226
-2.2485 -12.8238 5.2131 1 218 44 226
-2.2644 -12.8196 5.2135 1 218 44 226
-2.2803 -12.8153 5.2115 1 218 44 226
-2.2964 -12.8125 5.2125 1 218 44 226
-2.3125 -12.8096 5.212 1 218 44 226
-2.3285 -12.8063 5.2109 1 218 44 226
-2.3447 -12.8041 5.2112 1 218 44 226
-2.3605 -12.7995 5.2101 1 218 44 226
-2.3771 -12.799 5.2125 1 218 44 226
-2.3928 -12.7943 5.2118 1 218 44 226
-2.409 -12.7919 5.2102 1 218 44 226
-2.4253 -12.7876 5.2116 1 218 44 226
-2.4414 -12.7847 5.2093 1 218 44 226
-2.4574 -12.7811 5.211 1 218 44 226
-2.4733 -12.7796 5.2111 1 218 44 226
-2.4889 -12.7742 5.2087 1 218 44 226
-2.5052 -12.7723 5.2107 1 218 44 226
-2.521 -12.7676 5.2081 1 218 44 226
-2.537 -12.7642 5.21 1 218 44 226
-2.5531 -12.7615 5.2087 1 218 44 226
-2.5696 -12.7606 5.2097 1 218 44 226
-2.5854 -12.756 5.2143 1 218 44 226
-2.6014 -12.7528 5.2091 1 218 44 226
-2.6174 -12.7494 5.2096 1 218 44 226
-2.6333 -12.7457 5.208 1 218 44 226
-2.6497 -12.7441 5.2135 1 218 44 226
-2.665 -12.7374 5.213 1 218 44 226
-2.6818 -12.7376 5.2088 1 218 44 226
-2.6973 -12.7318 5.2144 1 218 44 226
-2.7144 -12.7317 5.2125 1 218 44 226
-2.73 -12.7263 5.2131 1 218 44 226
-2.7459 -12.7225 5.2078 1 218 44 226
-2.762 -12.7197 5.2113 1 218 44 226
-2.7778 -12.7154 5.2134 1 218 44 226
-2.7939 -12.7144 5.2125 1 218 44 226
-2.8097 -12.7098 5.213 1 218 44 226
-2.8262 -12.7066 5.2117 1 218 44 226
-2.8422 -12.7036 5.2119 1 218 44 226
-2.8576 -12.6991 5.2135 1 218 44 226
-2.8734 -12.695 5.2113 1 218 44 226
-2.8895 -12.6919 5.2111 1 218 44 226
-2.9052 -12.6873 5.2116 1 218 44 226
-2.9373 -12.6807 5.2129 1 218 44 226
-2.1059 -12.8641 5.2029 1 218 44 226
-2.1222 -12.8621 5.1974 1 218 44 226
-2.1379 -12.857 5.2003 1 218 44 226
-2.154 -12.8534 5.2014 1 218 44 226
-2.1702 -12.8511 5.2001 1 218 44 226
-2.1856 -12.8438 5.1992 1 218 44 226
-2.2008 -12.8356 5.1918 1 218 44 226
-2.2168 -12.8323 5.1963 1 218 44 226
-2.2325 -12.8273 5.1963 1 218 44 226
-2.2484 -12.823 5.1943 1 218 44 226
-2.2643 -12.819 5.1943 1 218 44 226
-2.2805 -12.8165 5.1935 1 218 44 226
-2.2968 -12.8146 5.1944 1 218 44 226
-2.3124 -12.809 5.1933 1 218 44 226
-2.3286 -12.8069 5.1927 1 218 44 226
-2.3447 -12.8039 5.1927 1 218 44 226
-2.3608 -12.801 5.1917 1 218 44 226
-2.3769 -12.798 5.1931 1 218 44 226
-2.3926 -12.7929 5.1923 1 218 44 226
-2.409 -12.792 5.1912 1 218 44 226
-2.4251 -12.7864 5.1921 1 218 44 226
-2.4413 -12.7842 5.1906 1 218 44 226
-2.4572 -12.7804 5.1917 1 218 44 226
-2.4731 -12.7783 5.1911 1 218 44 226
-2.489 -12.7748 5.1905 1 218 44 226
-2.5049 -12.7707 5.1911 1 218 44 226
-2.5211 -12.7685 5.1896 1 218 44 226
-2.5374 -12.7664 5.1914 1 218 44 226
-2.5532 -12.762 5.1895 1 218 44 226
-2.5693 -12.759 5.1901 1 218 44 226
-2.5851 -12.7547 5.1944 1 218 44 226
-2.6011 -12.7514 5.1896 1 218 44 226
-2.6172 -12.7482 5.1901 1 218 44 226
-2.633 -12.7443 5.1885 1 218 44 226
-2.6495 -12.7428 5.1944 1 218 44 226
-2.6659 -12.7416 5.1953 1 218 44 226
-2.6816 -12.7366 5.1894 1 218 44 226
-2.6978 -12.7342 5.1964 1 218 44 226
-2.7138 -12.729 5.192 1 218 44 226
-2.7298 -12.7255 5.1938 1 218 44 226
-2.7459 -12.7227 5.1889 1 218 44 226
-2.7617 -12.7183 5.1918 1 218 44 226
-2.7781 -12.7164 5.1948 1 218 44 226
-2.7935 -12.7123 5.1931 1 218 44 226
-2.8098 -12.7103 5.1942 1 218 44 226
-2.8259 -12.7053 5.1922 1 218 44 226
-2.842 -12.7026 5.1926 1 218 44 226
-2.8574 -12.6985 5.1942 1 218 44 226
-2.8735 -12.6956 5.1921 1 218 44 226
-2.8899 -12.6936 5.1923 1 218 44 226
-2.9054 -12.6882 5.1926 1 218 44 226
-2.9214 -12.6847 5.1926 1 218 44 226
-2.9372 -12.6804 5.1938 1 218 44 226
-2.9533 -12.6773 5.1912 1 218 44 226
-2.1057 -12.863 5.183 1 218 44 226
-2.1218 -12.86 5.1781 1 218 44 226
-2.1381 -12.8576 5.1811 1 218 44 226
-2.1542 -12.8547 5.1829 1 218 44 226
-2.1701 -12.8504 5.1808 1 218 44 226
-2.186 -12.8466 5.1813 1 218 44 226
-2.2009 -12.8365 5.1727 1 218 44 226
-2.2167 -12.8317 5.1771 1 218 44 226
-2.2323 -12.826 5.1769 1 218 44 226
-2.2484 -12.823 5.1754 1 218 44 226
-2.264 -12.8174 5.1752 1 218 44 226
-2.2803 -12.8157 5.1742 1 218 44 226
-2.2966 -12.8138 5.1751 1 218 44 226
-2.3126 -12.8104 5.1749 1 218 44 226
-2.3288 -12.8077 5.1736 1 218 44 226
-2.3448 -12.8046 5.1735 1 218 44 226
-2.3605 -12.7992 5.1721 1 218 44 226
-2.3768 -12.7975 5.174 1 218 44 226
-2.3928 -12.7938 5.1737 1 218 44 226
-2.4087 -12.7899 5.1715 1 218 44 226
-2.4255 -12.789 5.1742 1 218 44 226
-2.4411 -12.7833 5.1708 1 218 44 226
-2.4574 -12.7811 5.1731 1 218 44 226
-2.4734 -12.7799 5.1733 1 218 44 226
-2.4892 -12.7754 5.1718 1 218 44 226
-2.5051 -12.7718 5.1726 1 218 44 226
-2.5215 -12.7701 5.1713 1 218 44 226
-2.5374 -12.7664 5.173 1 218 44 226
-2.5535 -12.7637 5.1717 1 218 44 226
-2.5696 -12.7606 5.1723 1 218 44 226
-2.5851 -12.7545 5.1758 1 218 44 226
-2.6015 -12.7532 5.1714 1 218 44 226
-2.6175 -12.7497 5.1718 1 218 44 226
-2.6332 -12.7452 5.1699 1 218 44 226
-2.6496 -12.7433 5.1752 1 218 44 226
-2.6656 -12.7401 5.1762 1 218 44 226
-2.6815 -12.7362 5.1703 1 218 44 226
-2.6975 -12.7329 5.177 1 218 44 226
-2.714 -12.7297 5.1738 1 218 44 226
-2.7299 -12.726 5.1751 1 218 44 226
-2.7458 -12.722 5.1697 1 218 44 226
-2.7619 -12.7189 5.1736 1 218 44 226
-2.7779 -12.7157 5.1756 1 218 44 226
-2.7934 -12.7121 5.1736 1 218 44 226
-2.81 -12.711 5.1756 1 218 44 226
-2.8252 -12.7024 5.1721 1 218 44 226
-2.8419 -12.7021 5.1735 1 218 44 226
-2.8579 -12.7004 5.1761 1 218 44 226
-2.8732 -12.6939 5.173 1 218 44 226
-2.8897 -12.6929 5.1736 1 218 44 226
-2.9054 -12.6879 5.174 1 218 44 226
-2.9213 -12.6843 5.1731 1 218 44 226
-2.9372 -12.6802 5.1748 1 218 44 226
-2.1057 -12.8629 5.1645 1 218 44 226
-2.1221 -12.8614 5.1597 1 218 44 226
-2.138 -12.8575 5.1625 1 218 44 226
-2.1542 -12.8549 5.164 1 218 44 226
-2.1701 -12.8507 5.162 1 218 44 226
-2.1854 -12.8428 5.1609 1 218 44 226
-2.2004 -12.8332 5.1529 1 218 44 226
-2.2167 -12.8318 5.1582 1 218 44 226
-2.2326 -12.8276 5.1586 1 218 44 226
-2.2482 -12.8221 5.1561 1 218 44 226
-2.2645 -12.8201 5.1569 1 218 44 226
-2.2808 -12.818 5.1563 1 218 44 226
-2.2965 -12.8129 5.1558 1 218 44 226
-2.3125 -12.8097 5.1557 1 218 44 226
-2.3287 -12.8074 5.155 1 218 44 226
-2.3449 -12.805 5.1548 1 218 44 226
-2.3611 -12.8025 5.1545 1 218 44 226
-2.3768 -12.7973 5.155 1 218 44 226
-2.393 -12.7951 5.1553 1 218 44 226
-2.4087 -12.7902 5.1532 1 218 44 226
-2.4251 -12.7868 5.1545 1 218 44 226
-2.4417 -12.7862 5.1535 1 218 44 226
-2.4574 -12.7815 5.1543 1 218 44 226
-2.4734 -12.7801 5.154 1 218 44 226
-2.4892 -12.7754 5.1529 1 218 44 226
-2.5049 -12.7706 5.1537 1 218 44 226
-2.5209 -12.7675 5.1513 1 218 44 226
-2.537 -12.7644 5.1532 1 218 44 226
-2.5533 -12.7625 5.1519 1 218 44 226
-2.5696 -12.7606 5.1529 1 218 44 226
-2.5853 -12.7559 5.157 1 218 44 226
-2.6012 -12.7517 5.1519 1 218 44 226
-2.6179 -12.7516 5.1541 1 218 44 226
-2.6332 -12.745 5.1509 1 218 44 226
-2.6494 -12.7427 5.1565 1 218 44 226
-2.6655 -12.7397 5.1567 1 218 44 226
-2.6815 -12.7363 5.1514 1 218 44 226
-2.6971 -12.7309 5.1572 1 218 44 226
-2.7142 -12.7306 5.1547 1 218 44 226
-2.7301 -12.7267 5.1564 1 218 44 226
-2.7458 -12.7221 5.1508 1 218 44 226
-2.762 -12.7195 5.1544 1 218 44 226
-2.7776 -12.7144 5.1562 1 218 44 226
-2.7933 -12.7113 5.1549 1 218 44 226
-2.8095 -12.7091 5.1559 1 218 44 226
-2.8263 -12.7072 5.1551 1 218 44 226
-2.8422 -12.7033 5.155 1 218 44 226
-2.8577 -12.6997 5.1569 1 218 44 226
-2.874 -12.6976 5.1551 1 218 44 226
-2.8898 -12.693 5.1542 1 218 44 226
-2.9053 -12.6875 5.1544 1 218 44 226
-2.9216 -12.6853 5.1545 1 218 44 226
-2.9374 -12.6811 5.1562 1 218 44 226
-2.1057 -12.8629 5.1451 1 218 44 226
-2.1219 -12.8602 5.1403 1 218 44 226
-2.1379 -12.8564 5.1432 1 218 44 226
-2.1542 -12.8548 5.145 1 218 44 226
-2.17 -12.8497 5.1427 1 218 44 226
-2.1847 -12.8389 5.1404 1 218 44 226
-2.2004 -12.8337 5.1337 1 218 44 226
-2.2166 -12.8311 5.139 1 218 44 226
-2.2324 -12.8265 5.1392 1 218 44 226
-2.2488 -12.8251 5.1379 1 218 44 226
-2.2646 -12.8208 5.1388 1 218 44 226
-2.2807 -12.8176 5.1372 1 218 44 226
-2.2965 -12.8132 5.1371 1 218 44 226
-2.3129 -12.8117 5.1376 1 218 44 226
-2.3287 -12.8071 5.1355 1 218 44 226
-2.3448 -12.8041 5.1355 1 218 44 226
-2.3609 -12.8013 5.1351 1 218 44 226
-2.377 -12.7983 5.1365 1 218 44 226
-2.3928 -12.794 5.136 1 218 44 226
-2.4089 -12.7912 5.1342 1 218 44 226
-2.4254 -12.7882 5.1361 1 218 44 226
-2.4419 -12.7876 5.1347 1 218 44 226
-2.4579 -12.7837 5.1363 1 218 44 226
-2.4734 -12.7802 5.1356 1 218 44 226
-2.4895 -12.7769 5.1346 1 218 44 226
-2.5055 -12.7736 5.1355 1 218 44 226
-2.5213 -12.7694 5.1332 1 218 44 226
-2.5372 -12.7654 5.1347 1 218 44 226
-2.553 -12.761 5.1328 1 218 44 226
-2.569 -12.7575 5.1332 1 218 44 226
-2.5853 -12.7555 5.1384 1 218 44 226
-2.6017 -12.7543 5.134 1 218 44 226
-2.6175 -12.7497 5.134 1 218 44 226
-2.6334 -12.7461 5.1324 1 218 44 226
-2.6495 -12.743 5.1373 1 218 44 226
-2.665 -12.7373 5.1372 1 218 44 226
-2.6816 -12.7364 5.1326 1 218 44 226
-2.6975 -12.7328 5.1391 1 218 44 226
-2.7141 -12.7304 5.1362 1 218 44 226
-2.7299 -12.726 5.1373 1 218 44 226
-2.7459 -12.7227 5.1321 1 218 44 226
-2.7623 -12.7211 5.1367 1 218 44 226
-2.7782 -12.7172 5.1384 1 218 44 226
-2.7933 -12.7115 5.1356 1 218 44 226
-2.8098 -12.7103 5.1375 1 218 44 226
-2.8259 -12.7054 5.1355 1 218 44 226
-2.842 -12.7024 5.1358 1 218 44 226
-2.8579 -12.7006 5.1383 1 218 44 226
-2.8737 -12.6963 5.1361 1 218 44 226
-2.8895 -12.692 5.1354 1 218 44 226
-2.9056 -12.6891 5.1366 1 218 44 226
-2.9213 -12.6842 5.1357 1 218 44 226
-2.9377 -12.6827 5.1379 1 218 44 226
